0.509013 0.541681 0.900655 0.647159 1.029 1.76288
0.509432 0.684268 0.606617 1.16592 1.12744 -0.00380747
0.477144 0.445552 0.536872 0.136731 0.697079 1.44288
0.497808 0.325607 0.84492 0.801569 1.27508 0.923837
0.539246 0.401147 0.50852 1.48253 0.31989 0.186629
0.464613 0.303066 0.641978 -0.508762 0.483898 0.782837
0.472833 0.727935 0.869567 -0.367142 0.640223 1.40506
0.467833 0.324143 0.609922 -0.240719 0.976608 0.878705
0.4923 0.451385 0.328885 0.328333 -0.535079 0.326979
0.4594 0.278464 0.830993 -0.491903 0.0359203 1.02124
0.483012 0.282357 0.881471 0.608699 -0.0922566 1.80009
0.504283 0.585481 0.397477 0.533076 1.58506 0.401945
0.497144 0.587738 0.852955 0.314281 1.50335 0.494884
0.535442 0.61324 0.634176 1.37429 0.61335 1.17855
0.500141 0.319559 0.702134 0.283709 1.29311 0.628957
0.51812 0.372125 0.570332 0.48457 1.1008 1.25437
0.550222 0.475578 0.61601 1.37989 -0.0826221 0.624343
0.465349 0.693595 0.781541 -0.121163 -0.0954489 0.59875
0.495169 0.451183 0.625859 0.174763 -0.496058 0.617301
0.569952 0.513312 0.132822 1.54612 0.730346 0.133387
0.497187 0.679388 0.784524 0.612571 -0.308521 0.68098
0.454398 0.536242 0.0997485 0.466546 0.528167 -0.900145
0.488044 0.622004 0.662077 0.521967 0.569788 1.66014
0.466594 0.729757 0.86008 -0.373381 0.642045 1.39557
0.532188 0.700112 0.74822 1.17345 -0.058259 0.631376
0.461245 0.573649 0.675321 -0.362459 1.1398 0.643997
0.526669 0.45778 0.581638 0.893887 -0.472278 0.59359
0.540768 0.462156 0.855491 0.959248 -0.444984 0.899895
0.509937 0.581264 0.8706 0.640197 1.26107 1.59234
0.520015 0.582403 0.525148 0.945858 1.48716 0.533314
0.524026 0.752616 0.812446 0.906145 1.6713 0.912487
0.52496 0.618164 0.582584 1.19374 0.54355 -0.157127
0.49102 0.581752 0.750456 0.949783 1.46072 0.880622
0.535017 0.724452 0.866579 0.798456 0.837866 1.82456
0.563767 0.540585 0.869896 1.49075 0.915199 0.888851
0.518242 0.247459 0.646587 1.19603 -0.479824 0.538621
0.470597 0.577797 0.579896 0.0342266 1.47756 0.582878
0.520085 0.642114 0.587469 1.17657 1.08529 -0.0229555
0.522808 0.308003 0.860817 0.764991 0.947408 1.59055
0.453698 0.564563 0.709538 -0.370006 1.13072 0.678214
0.539167 0.596399 0.61554 1.53662 0.539136 0.658104
0.495729 0.73128 0.876574 0.759169 0.844694 1.83456
0.460485 0.49527 0.891199 -0.291463 0.259772 1.50692
0.505348 0.683503 0.860221 0.68093 -0.245612 1.18567
0.514092 0.31988 0.766478 0.850296 1.26163 0.757584
0.485391 0.256005 0.591856 -0.236021 -0.399987 0.369957
0.516076 0.742992 0.691651 0.771275 1.57699 0.20244
0.480347 0.295797 0.874901 0.550258 0.804445 1.73303
0.524143 0.682772 0.836955 1.05765 -0.11578 1.11568
0.472953 0.255197 0.827517 0.296986 0.233131 -0.156631
0.51452 0.450709 0.37149 0.486754 -0.548873 0.379588
0.519199 0.403812 0.548552 1.06238 0.618409 1.36028
0.456585 0.733047 0.823678 -0.157256 1.51596 0.722436
0.473461 0.456947 0.477207 -0.167077 0.468809 -0.290628
0.521995 0.317583 0.82203 0.858198 1.25933 0.813136
0.557691 0.554461 0.788392 1.31749 1.20447 0.774395
0.550167 0.562528 0.443034 1.2416 1.28496 0.446061
0.465821 0.459504 0.563958 -0.256314 -0.232213 0.570953
0.46012 0.571511 0.655944 -0.247685 1.27783 0.667368
0.552764 0.529827 0.885111 1.37972 0.465692 1.44371
0.518851 0.264094 0.86912 0.644539 -0.11052 1.78774
0.525091 0.27075 0.597082 1.12706 -0.428201 0.210939
0.52292 0.62835 0.653469 1.36176 0.628459 1.19784
0.499158 0.586129 0.259295 0.638897 1.57632 0.257865
0.480623 0.246802 0.719397 -0.164307 -0.517369 0.729805
0.528392 0.751729 0.78402 0.558092 1.74943 0.845011
0.494036 0.58517 0.532949 0.522829 1.58475 0.537417
0.566259 0.525424 0.621065 1.55142 0.69701 0.624365
0.539678 0.612028 0.624594 1.53713 0.554764 0.667157
0.508714 0.755016 0.795245 0.690188 1.73544 0.718838
0.485101 0.723883 0.658038 0.0315022 1.43808 0.124959
0.516785 0.751098 0.854042 0.898905 1.66978 0.954083
0.495355 0.470615 0.0999181 0.495525 0.472875 -0.900079
0.535702 0.460073 0.860685 0.954183 -0.447066 0.905089
0.497679 0.754894 0.747201 0.52738 1.75259 0.808192
0.566701 0.501202 0.576154 1.4713 0.0749325 0.575437
0.463809 0.307376 0.579673 -0.532925 0.284724 0.502159
0.51449 0.756287 0.71622 0.544191 1.75398 0.777211
0.51107 0.321103 0.848054 0.81483 1.27058 0.926971
0.542822 0.468208 0.40358 0.380943 -0.518553 0.393641
0.467013 0.459677 0.704174 -0.255122 -0.23204 0.711168
0.510995 0.715561 0.642237 0.766194 1.54956 0.153027
0.548807 0.469774 0.368185 1.37847 -0.088426 0.376519
0.45797 0.46806 0.783585 -0.198394 -0.286374 0.787543
0.531585 0.692719 0.851211 1.06509 -0.105832 1.12993
0.550268 0.475855 0.630073 1.37993 -0.0823446 0.638407
0.508638 0.240509 0.845236 1.01599 -0.588098 0.608585
0.448104 0.475822 0.164518 -0.276912 -0.212903 0.167751
0.5555 0.508026 0.878556 1.38245 0.44389 1.43716
0.47606 0.58149 0.68408 0.188404 1.53877 0.654447
0.499785 0.681167 0.72894 0.801472 -0.180945 1.13606
0.534461 0.303108 0.643598 1.4393 0.728405 0.663425
0.492545 0.755149 0.75854 0.674019 1.73557 0.682133
0.478788 0.315177 0.707002 0.262356 1.28873 0.633825
0.540491 0.624441 0.62224 1.53794 0.567178 0.664804
0.48221 0.452899 0.844271 0.177634 -0.496259 0.764694
0.533226 0.341265 0.521654 1.47866 0.147076 0.260044
0.562473 0.546849 0.801313 1.53831 0.753994 0.731867
0.519716 0.639884 0.585453 1.1762 1.08306 -0.0249705
0.475681 0.635715 0.591318 -0.0319122 1.07193 -0.151692
0.481567 0.617152 0.57992 0.462181 0.691264 -0.417141
0.483498 0.673478 0.825664 0.598882 -0.314432 0.72212
0.465354 0.666719 0.656764 -0.492956 0.382348 0.684612
0.47778 0.583606 0.852277 0.294918 1.49922 0.494206
0.520394 0.619581 0.579346 0.501007 0.693693 -0.417716
0.516989 0.452886 0.679574 0.955972 -0.44553 0.667649
0.539169 0.340045 0.564883 1.36041 0.763178 0.947662
0.502109 0.414007 0.470252 0.555579 0.272662 -0.518263
0.453965 0.471023 0.684395 -0.202399 -0.28341 0.688353
0.562099 0.487532 0.846315 1.52235 0.209242 0.868218
0.47243 0.400905 0.539894 -0.344882 0.676987 1.04564
0.535913 0.304857 0.615675 1.42314 0.678426 0.886367
0.496968 0.596507 0.578083 0.478875 0.672243 -0.418881
0.53929 0.596483 0.612776 1.53674 0.539219 0.655339
0.559652 0.487034 0.106064 1.46425 0.0607641 0.105347
0.543652 0.469592 0.862963 1.13107 -0.138235 1.39727
0.53361 0.743582 0.778066 1.50284 0.988068 0.749284
0.477067 0.455625 0.544017 0.233011 -0.514135 0.545453
0.525423 0.455696 0.37535 0.997176 -0.426035 0.374821
0.491067 0.318676 0.717224 0.274634 1.29223 0.644047
0.464316 0.297856 0.647519 -0.524047 0.445967 0.612829
0.511316 0.602882 0.578281 0.49193 0.676993 -0.418781
0.510712 0.751773 0.70589 0.505342 1.62889 0.225637
0.518732 0.247235 0.856117 1.2689 -0.259272 1.2812
0.465115 0.320351 0.611961 -0.243437 0.972815 0.880744
0.48464 0.320311 0.817902 -0.184096 1.06379 0.823182
0.534676 0.460689 0.562021 0.901894 -0.469369 0.573973
0.436007 0.48899 0.476668 -0.548455 0.313417 0.473737
0.482533 0.707325 0.869273 0.112441 0.268836 1.68827
0.472972 0.257935 0.827452 0.297005 0.23587 -0.156696
0.506555 0.445903 0.821605 0.945538 -0.452513 0.80968
0.539738 0.639564 0.620461 1.44586 0.752031 0.212666
0.539263 0.669673 0.636967 1.39907 0.930913 0.198227
0.473812 0.56583 0.881964 -0.120682 1.04408 1.52838
0.465477 0.60012 0.596278 -0.431601 0.710118 0.168315
0.459335 0.285438 0.839561 -0.491968 0.0428943 1.02981
0.512672 0.472042 0.887085 0.811912 -0.0170097 1.7064
0.501574 0.614649 0.579345 0.482187 0.68876 -0.417716
0.511043 0.245646 0.730297 1.10497 -0.558166 0.763972
0.527588 0.311771 0.663455 1.0179 1.1606 0.861122
0.462849 0.292598 0.666856 -0.525513 0.440708 0.632166
0.56587 0.525613 0.785711 1.54171 0.732758 0.716265
0.451429 0.562631 0.662991 -0.267383 1.25778 0.671663
0.461106 0.386303 0.509011 -0.431291 0.262727 0.0750102
0.474301 0.582712 0.740626 0.186645 1.53999 0.710993
0.459837 0.571729 0.098256 0.564734 0.465866 -0.890577
0.509059 0.448975 0.13444 0.345092 -0.537489 0.132534
0.546674 0.46771 0.390313 0.384796 -0.519051 0.380374
0.461805 0.624805 0.633827 -0.528086 0.56406 0.761986
0.474817 0.425047 0.475583 -0.165721 0.436908 -0.292252
0.447417 0.557296 0.864003 -0.147076 1.03554 1.51042
0.555089 0.46934 0.824591 1.45241 0.032944 0.758397
0.554855 0.558863 0.246972 1.24629 1.28129 0.249999
0.501519 0.729851 0.875151 0.764959 0.843265 1.83314
0.495051 0.244766 0.824607 0.334348 -0.732867 0.68893
0.562685 0.542801 0.79222 1.53853 0.749947 0.722774
0.529081 0.737319 0.866599 0.657773 1.4203 1.58561
0.537686 0.722357 0.752437 1.52263 0.895059 0.759848
0.546294 0.567999 0.84399 1.14875 1.36533 0.880018
0.492748 0.451682 0.136438 0.328781 -0.534782 0.134532
0.537254 0.299329 0.762029 1.53355 0.382534 0.740415
0.50578 0.589653 0.761264 -0.0746149 1.40394 0.770266
0.528345 0.26324 0.858224 1.27851 -0.243266 1.28331
0.433428 0.500809 0.836988 -0.519419 0.463693 0.535817
0.552473 0.545328 0.0999555 0.559706 0.548076 -0.900015
0.470444 0.7104 0.652445 0.0168454 1.42459 0.119366
0.492157 0.451785 0.856357 0.293802 -0.506724 1.06109
0.533246 0.591823 0.637565 1.37209 0.591933 1.18194
0.541219 0.467692 0.480944 0.37934 -0.519069 0.471005
0.479149 0.246901 0.828062 0.318447 -0.730732 0.692385
0.48775 0.454615 0.0998777 0.488155 0.457333 -0.900118
0.556804 0.525739 0.878661 1.38376 0.461603 1.43726
0.476566 0.538178 0.902257 -0.111977 0.960168 1.59185
0.508325 0.745319 0.862715 0.637016 1.4283 1.58172
0.46102 0.269154 0.632218 -0.260393 -0.386838 0.41032
0.490961 0.443359 0.542672 0.150548 0.694886 1.44868
0.51721 0.250009 0.830346 1.02456 -0.578597 0.593696
0.487287 0.57706 0.795299 0.94605 1.45603 0.925464
0.538745 0.396936 0.508114 1.48203 0.315679 0.186223
0.531993 0.59666 0.591419 1.43811 0.709128 0.183624
0.542448 0.335359 0.559365 1.48788 0.14117 0.297755
0.489536 0.673742 0.829867 0.60492 -0.314167 0.726323
0.477998 0.671866 0.841288 0.161819 0.0355936 1.54498
0.502514 0.326863 0.511104 0.540738 -0.353244 -0.221011
0.461232 0.642329 0.616025 -0.435845 0.752326 0.188061
0.508942 0.238432 0.853799 0.34824 -0.739201 0.718122
0.535666 0.479414 0.882915 1.12309 -0.128413 1.41722
0.438334 0.485356 0.609137 -0.252503 -0.237654 0.608394
0.506964 0.68988 0.608037 1.16345 1.13306 -0.00238704
0.463045 0.598615 0.630991 -0.526846 0.537871 0.759149
0.472823 0.298545 0.868849 -0.331757 0.79956 1.18765
0.471905 0.675043 0.616987 -0.0356883 1.11126 -0.126023
0.537271 0.453473 0.513669 1.5195 0.497746 0.696058
0.520614 0.714955 0.871664 0.784053 0.828368 1.82965
0.564759 0.497249 0.475752 1.46935 0.0709799 0.475035
0.462919 0.293082 0.666937 -0.525444 0.441192 0.632246
0.533042 0.306491 0.6358 1.43788 0.731788 0.655627
0.497215 0.586108 0.302697 0.526008 1.58568 0.307165
0.538334 0.304351 0.831126 1.53463 0.387556 0.809512
0.453234 0.724574 0.790251 -0.475781 0.358442 0.843896
0.561856 0.545633 0.863583 1.48884 0.920247 0.882537
0.531348 0.457408 0.847266 0.949828 -0.449732 0.89167
0.556634 0.474345 0.852337 1.42153 0.166302 1.24866
0.473903 0.745618 0.8507 -0.167869 1.38601 1.27263
0.482876 0.453138 0.232579 0.318909 -0.533326 0.230673
0.479923 0.691231 0.621013 -0.0276704 1.12745 -0.121997
0.455036 0.571697 0.143279 0.018666 1.47146 0.146261
0.503129 0.254367 0.867304 0.628816 -0.120246 1.78593
0.481629 0.744496 0.700982 0.307679 1.65669 0.329987
0.469858 0.582614 0.853786 0.286995 1.49823 0.495715
0.543127 0.489829 0.0999049 0.546097 0.49003 -0.900091
0.524503 0.68388 0.710516 1.25893 0.182683 1.16815
0.458274 0.561645 0.0991696 0.56317 0.455782 -0.889663
0.447806 0.559119 0.644174 -0.271006 1.25427 0.652845
0.442583 0.546177 0.867783 -0.151911 1.02443 1.5142
0.443238 0.55819 0.856201 -0.37072 1.13615 0.797536
0.460754 0.704355 0.749839 -0.125758 -0.0846894 0.567048
0.535417 0.470936 0.0999256 0.535587 0.473196 -0.900072
0.54006 0.318949 0.562916 1.4855 0.12476 0.301307
0.549915 0.514329 0.09993 0.552885 0.514529 -0.900066
0.516694 0.302086 0.868031 0.758877 0.941491 1.59776
0.51307 0.452182 0.563873 0.880289 -0.477876 0.575824
0.450278 0.561439 0.663141 -0.268534 1.25659 0.671812
0.434572 0.501043 0.799061 -0.565124 0.477104 0.804939
0.48013 0.752329 0.720945 0.30618 1.66453 0.349949
0.539705 0.60458 0.613935 1.53716 0.547317 0.656499
0.487116 0.746065 0.702268 0.313166 1.65826 0.331273
0.47773 0.681868 0.792439 -0.108782 -0.107177 0.609647
0.543319 0.570983 0.775484 1.30311 1.22099 0.761487
0.498604 0.725859 0.876425 0.762043 0.839273 1.83441
0.551634 0.560567 0.743128 1.31143 1.21058 0.729131
0.5687 0.528912 0.835312 1.54454 0.736058 0.765866
0.567749 0.504079 0.187371 1.47234 0.0778099 0.186655
0.464817 0.46154 0.434022 0.0348973 -0.441241 0.446477
0.544315 0.467904 0.409455 0.382436 -0.518857 0.399516
0.514096 0.549664 0.895328 0.652241 1.03698 1.75756
0.467382 0.6903 0.853186 0.151203 0.0540277 1.55688
0.536579 0.297528 0.572958 1.38875 -0.0815535 0.212256
0.469586 0.575877 0.869417 0.280261 1.38144 1.43087
0.538911 0.271556 0.77266 1.53736 0.246126 0.723064
0.446262 0.561129 0.84303 -0.377442 1.12728 0.811706
0.506728 0.238942 0.852746 0.346025 -0.738691 0.717068
0.484556 0.45279 0.267954 0.320589 -0.533674 0.266048
0.510276 0.320977 0.852634 0.814036 1.27045 0.931551
0.481951 0.429435 0.541969 -0.122808 0.455942 1.33794
0.548371 0.563312 0.0999753 0.555604 0.566061 -0.899995
0.567355 0.520192 0.7904 1.5432 0.727338 0.720954
0.56762 0.521645 0.411119 1.55278 0.693231 0.414418
0.52337 0.601679 0.582809 1.19215 0.527065 -0.156902
0.521271 0.625774 0.656011 1.36011 0.625884 1.20038
0.498903 0.293412 0.544255 0.573242 -0.499515 -0.0605097
0.441003 0.552141 0.357044 -0.431998 1.03985 0.353869
0.445768 0.555888 0.73267 -0.262036 1.2622 0.744094
0.539416 0.601922 0.617125 1.53687 0.544659 0.659688
0.476922 0.581769 0.684711 0.189266 1.53904 0.655078
0.513832 0.722168 0.654979 0.769031 1.55616 0.165769
0.519217 0.6357 0.666232 1.25364 0.134503 1.12386
0.478872 0.701647 0.864578 0.10878 0.263158 1.68358
0.453531 0.567712 0.86192 -0.140962 1.04596 1.50834
0.489652 0.742363 0.691976 0.315701 1.65456 0.32098
0.532679 0.690879 0.843843 1.06619 -0.107673 1.12256
0.558818 0.553949 0.820297 1.31618 1.2067 0.802523
0.432449 0.501166 0.844998 -0.509398 0.191531 0.975572
0.53738 0.43686 0.494038 1.48066 0.355603 0.172147
0.538767 0.303611 0.848267 1.53507 0.386816 0.826652
0.468568 0.383523 0.543142 -0.348744 0.659605 1.04889
0.479392 0.444861 0.537909 0.138979 0.696388 1.44392
0.465177 0.303621 0.64759 -0.523185 0.451731 0.6129
0.460691 0.669844 0.62423 -0.436386 0.779841 0.196267
0.497854 0.584985 0.845551 0.314992 1.5006 0.48748
0.537291 0.575077 0.837897 1.13975 1.37241 0.873926
0.539201 0.572684 0.796466 0.922093 1.49644 0.804712
0.472841 0.310892 0.645932 0.0388857 1.08134 1.11294
0.496986 0.759893 0.829969 0.67846 1.74032 0.753562
0.500892 0.586198 0.758618 -0.0795035 1.40048 0.76762
0.566221 0.499505 0.817715 1.52647 0.221214 0.839618
0.519872 0.254777 0.863092 1.27004 -0.25173 1.28818
0.46164 0.402777 0.503222 -0.430757 0.279201 0.0692216
0.521617 0.544342 0.897131 0.659763 1.03166 1.75936
0.49047 0.569039 0.885629 0.620729 1.24884 1.60736
0.505399 0.589388 0.760684 -0.0749961 1.40367 0.769686
0.566617 0.519305 0.863394 1.39357 0.45517 1.422
0.478188 0.730461 0.680421 -0.31125 1.26216 0.37369
0.519791 0.315178 0.522862 0.558015 -0.364929 -0.209254
0.548957 0.565606 0.828204 1.30632 1.21836 0.81043
0.556856 0.527254 0.0999541 0.560063 0.527704 -0.900041
0.473914 0.680814 0.80923 -0.112598 -0.10823 0.626438
0.519727 0.752503 0.789159 0.701201 1.73293 0.712752
0.439822 0.480252 0.840969 -0.182414 -0.221732 0.494499
0.465346 0.3033 0.769415 -0.203391 1.04678 0.774695
0.474773 0.580523 0.151731 0.0668704 1.49355 0.152308
0.461962 0.704719 0.848712 -0.378013 0.617007 1.3842
0.467905 0.334847 0.519345 -0.403437 0.125424 0.0756056
0.531054 0.749516 0.78207 1.3208 1.35139 0.663525
0.455195 0.379895 0.523581 -0.11462 1.00748 1.05409
0.539779 0.709207 0.71051 1.53463 0.797468 0.660605
0.520576 0.306189 0.863147 0.762758 0.945594 1.59288
0.537139 0.723906 0.788958 1.52209 0.896608 0.796369
0.510079 0.449153 0.164225 0.482314 -0.550429 0.172323
0.467456 0.458851 0.865505 0.2691 -0.499658 1.07024
0.530551 0.397216 0.484031 1.47383 0.315959 0.16214
0.57058 0.516735 0.845533 1.53083 0.238445 0.867436
0.468071 0.260392 0.828274 0.292103 0.238327 -0.155875
0.533374 0.263926 0.63066 1.21117 -0.463358 0.522693
0.465238 0.304236 0.64846 -0.523124 0.452346 0.61377
0.475917 0.45724 0.866158 0.277562 -0.50127 1.07089
0.495062 0.744626 0.865747 0.623754 1.42761 1.58475
0.519147 0.46168 0.0999019 0.519318 0.46394 -0.900095
0.501934 0.446392 0.466914 0.450059 0.373283 -0.52906
0.462674 0.291847 0.642982 -0.510701 0.472679 0.78384
0.445735 0.560959 0.848827 -0.368222 1.13891 0.790162
0.496393 0.618606 0.57974 0.477007 0.692717 -0.417322
0.456735 0.472201 0.875634 0.226636 -0.2102 1.56945
0.532128 0.258642 0.754317 0.99215 -0.629265 0.755113
0.540272 0.622611 0.624908 1.53772 0.565347 0.667472
0.541739 0.731797 0.861234 1.3436 0.407788 1.36327
0.484157 0.580489 0.783176 0.94292 1.45946 0.913341
0.518682 0.250128 0.631369 1.19647 -0.477155 0.523403
0.460567 0.573721 0.341805 0.0241968 1.47348 0.344787
0.518349 0.602083 0.578228 1.18712 0.527469 -0.161482
0.510869 0.584708 0.419656 0.650608 1.57489 0.418226
0.561599 0.550511 0.274566 1.53776 0.767545 0.275131
0.479128 0.313261 0.647867 0.0451727 1.08371 1.11488
0.477125 0.751911 0.845017 -0.136716 1.53482 0.743775
0.502081 0.449712 0.856263 0.303726 -0.508798 1.06099
0.527556 0.257937 0.634473 1.20535 -0.469346 0.526507
0.56793 0.518481 0.793382 1.54377 0.725627 0.723936
0.47937 0.582045 0.583108 -0.13003 0.433331 -0.195683
0.523306 0.253446 0.831381 1.03066 -0.57516 0.594731
0.534994 0.73608 0.790381 1.51994 0.908782 0.797792
0.471577 0.690547 0.774717 -0.114935 -0.0984975 0.591925
0.471169 0.353262 0.504246 -0.400173 0.143838 0.0605069
0.493008 0.59447 0.65648 0.0392169 0.274292 1.48808
0.500567 0.758206 0.850712 0.882687 1.67689 0.950753
0.53797 0.260776 0.837158 1.04532 -0.567831 0.600508
0.43338 0.515334 0.835348 -0.519467 0.478218 0.534177
0.482844 0.600847 0.578669 0.464751 0.676582 -0.418295
0.456078 0.461898 0.848963 -0.166158 -0.240087 0.502494
0.530985 0.458737 0.266635 1.00274 -0.422994 0.266106
0.455643 0.383716 0.523503 -0.149116 0.410223 1.31947
0.540886 0.570759 0.625278 1.29032 1.23276 0.614593
0.478073 0.629293 0.661737 0.0242815 0.309115 1.49334
0.475457 0.582554 0.861816 0.286132 1.38812 1.42327
0.512515 0.332527 0.612402 1.00846 1.1777 0.811712
0.537396 0.574165 0.714366 0.920288 1.49792 0.722611
0.461995 0.349395 0.524086 -0.409348 0.139971 0.0803463
0.455371 0.377833 0.524569 -0.534316 0.235775 0.506164
0.544362 0.470916 0.863687 1.13178 -0.136911 1.398
0.532927 0.747519 0.798555 1.51787 0.920221 0.805966
0.53847 0.271797 0.653314 1.48073 -0.0225766 0.812961
0.462057 0.574157 0.428212 0.0256862 1.47392 0.431194
0.462536 0.461233 0.293123 -0.26248 -0.227491 0.296356
0.491478 0.268738 0.874759 0.617165 -0.105876 1.79338
0.475349 0.450435 0.534842 0.134936 0.701962 1.44085
0.540307 0.684815 0.677898 1.53515 0.773076 0.627994
0.507613 0.606029 0.578587 0.488227 0.68014 -0.418475
0.494346 0.343733 0.610092 0.99029 1.18891 0.809402
0.567268 0.522747 0.458988 1.55243 0.694333 0.462288
0.511568 0.445298 0.542691 1.05475 0.659896 1.35442
0.460599 0.292078 0.765009 -0.51279 0.072016 0.701097
0.508857 0.582051 0.0998249 0.512064 0.582501 -0.90017
0.508274 0.251659 0.865496 0.633961 -0.122954 1.78412
0.478602 0.24608 0.835973 -0.0500177 -0.475411 1.2832
0.54078 0.627411 0.61945 1.53823 0.570147 0.662014
0.463811 0.6018 0.600201 -0.433266 0.711797 0.172238
0.507543 0.685984 0.866118 0.683124 -0.243131 1.19157
0.431495 0.540554 0.84538 -0.382462 1.11851 0.786715
0.4756 0.256076 0.827024 0.299633 0.23401 -0.157124
0.540041 0.698797 0.69732 1.53489 0.787058 0.647415
0.47817 0.248071 0.660612 -0.16676 -0.5161 0.671021
0.492288 0.438417 0.468002 0.440414 0.365309 -0.527972
0.513717 0.619831 0.579494 0.494331 0.693942 -0.417567
0.47261 0.343337 0.5061 -0.398732 0.133913 0.0623608
0.515386 0.450494 0.348001 0.48762 -0.549087 0.356099
0.464505 0.265021 0.633106 -0.256908 -0.390971 0.411207
0.460821 0.572337 0.648297 -0.246984 1.27865 0.65972
0.566358 0.535041 0.852746 1.49334 0.909655 0.871701
0.460452 0.341309 0.533232 -0.529235 0.199251 0.514827
0.538323 0.464899 0.507206 1.33292 -0.141968 0.489109
0.541023 0.740366 0.845868 1.52605 0.791397 0.681176
0.476417 0.315319 0.719279 -0.322981 0.913917 0.770687
0.46607 0.30497 0.678882 -0.333328 0.903568 0.73029
0.482896 0.331213 0.621752 0.0489411 1.10166 1.08876
0.523774 0.651797 0.598466 1.18026 1.09497 -0.0119576
0.466591 0.566606 0.874749 -0.127902 1.04485 1.52117
0.473177 0.308865 0.853524 -0.331403 0.80988 1.17233
0.487241 0.602081 0.656263 0.0334497 0.281903 1.48786
0.46162 0.708596 0.842571 -0.440946 0.347725 0.607735
0.509972 0.550675 0.895418 0.648118 1.03799 1.75764
0.540895 0.650271 0.628614 1.4007 0.911511 0.189874
0.4854 0.316418 0.648487 0.0514446 1.08686 1.1155
0.523421 0.613852 0.652701 1.36226 0.613962 1.19707
0.558144 0.533325 0.877548 1.3851 0.469189 1.43615
0.504344 0.333116 0.630236 1.00029 1.17829 0.829546
0.437449 0.545522 0.863546 -0.157045 1.02377 1.50996
0.488206 0.243144 0.722838 0.0631501 -0.659349 0.792363
0.569111 0.524555 0.828096 1.54495 0.731701 0.758651
0.539084 0.40017 0.508292 1.48237 0.318913 0.186401
0.48291 0.686953 0.753864 -0.103602 -0.102091 0.571072
0.538191 0.639347 0.616963 1.44431 0.751815 0.209169
0.539144 0.695652 0.815347 1.18041 -0.0627198 0.698504
0.459706 0.624863 0.614735 -0.437372 0.734861 0.186771
0.540556 0.27644 0.649563 1.48282 -0.0179338 0.80921
0.537336 0.526094 0.893457 0.988412 0.540079 1.78583
0.444455 0.47962 0.500656 -0.246383 -0.24339 0.499913
0.433588 0.540113 0.54836 -0.439413 1.02782 0.545185
0.4677 0.731849 0.862157 -0.372275 0.644138 1.39765
0.472411 0.58061 0.691048 0.184755 1.53788 0.661415
0.539567 0.701542 0.69273 1.53441 0.789803 0.642825
0.516456 0.318835 0.745184 0.85266 1.26058 0.73629
0.561459 0.484704 0.809655 1.45878 0.0483081 0.743461
0.534482 0.303329 0.637881 1.43932 0.728627 0.657708
0.533844 0.739334 0.749848 1.50307 0.983821 0.721066
0.531159 0.668087 0.680609 1.34392 0.210403 1.0411
0.568389 0.515633 0.494181 1.55355 0.687219 0.49748
0.458962 0.524929 0.0998758 0.458568 0.523358 -0.900123
0.52748 0.71838 0.86937 0.790919 0.831794 1.82736
0.509137 0.449885 0.251318 0.481371 -0.549697 0.259416
0.538387 0.331933 0.547234 1.48382 0.137744 0.285624
0.491463 0.325578 0.807877 0.275031 1.29913 0.7347
0.513235 0.378503 0.563298 0.479684 1.10717 1.24734
0.461177 0.433793 0.516495 -0.515435 0.566049 0.686017
0.523278 0.303675 0.535072 1.37545 -0.0754059 0.17437
0.543338 0.466234 0.591185 0.38146 -0.520527 0.581246
0.536211 0.349627 0.526236 1.48165 0.155438 0.264626
0.461575 0.601797 0.621142 -0.528317 0.541052 0.7493
0.495302 0.233801 0.644935 0.0702462 -0.668693 0.714459
0.530273 0.579679 0.853407 1.13273 1.37701 0.889435
0.522611 0.596867 0.582608 1.19139 0.522253 -0.157103
0.431933 0.534359 0.119522 -0.441068 1.02207 0.116347
0.512034 0.740643 0.866493 0.640726 1.42363 1.5855
0.54842 0.468984 0.235375 0.386541 -0.517777 0.225436
0.524014 0.399659 0.544141 1.39735 0.40881 1.03118
0.517182 0.693445 0.875154 0.780621 0.806858 1.83314
0.539952 0.273592 0.84436 1.52225 0.28198 1.03149
0.468486 0.308995 0.669591 -0.330912 0.907594 0.720999
0.54102 0.634193 0.622945 1.53847 0.576929 0.665508
0.450122 0.556759 0.0988281 0.555019 0.450895 -0.890004
0.473656 0.568977 0.879492 -0.120838 1.04723 1.52591
0.543127 0.571198 0.78065 0.926019 1.49495 0.788896
0.529422 0.574864 0.0998876 0.53263 0.575314 -0.900107
0.55009 0.476717 0.705488 1.37975 -0.0814831 0.713821
0.518315 0.587349 0.823398 1.0589 1.42757 0.780915
0.460006 0.27 0.66451 -0.532541 0.389784 0.686911
0.523264 0.416819 0.474103 1.31231 0.400306 -0.14001
0.527988 0.43864 0.479586 1.31703 0.422127 -0.134527
0.493579 0.27889 0.562641 0.567918 -0.514037 -0.0421233
0.538755 0.28756 0.85002 1.52105 0.295948 1.03715
0.462819 0.649111 0.640325 -0.456345 0.590947 1.02988
0.484612 0.245314 0.729035 0.059556 -0.657179 0.79856
0.506623 0.244077 0.770781 1.10055 -0.559735 0.804457
0.494148 0.745204 0.696855 0.320198 1.6574 0.325859
0.44312 0.481008 0.151694 -0.281896 -0.207716 0.154927
0.492837 0.64936 0.591487 0.402869 1.015 -0.334912
0.541126 0.723542 0.841274 1.52615 0.774573 0.676583
0.565097 0.535633 0.804742 1.54094 0.742779 0.735296
0.474429 0.284347 0.553132 0.548767 -0.50858 -0.0516323
0.554314 0.559322 0.825679 1.31168 1.21207 0.807905
0.548535 0.469122 0.219797 0.386656 -0.517639 0.209858
0.433306 0.499596 0.847454 -0.508542 0.189961 0.978028
0.508989 0.612375 0.660861 0.542912 0.560158 1.65892
0.444642 0.555691 0.862638 -0.149852 1.03394 1.50906
0.528087 0.449195 0.479429 1.31713 0.432683 -0.134684
0.515008 0.286839 0.554854 0.589347 -0.506089 -0.0499112
0.539487 0.572774 0.225697 1.20897 1.3156 0.22694
0.494953 0.450299 0.731801 0.174547 -0.496943 0.723243
0.536806 0.421637 0.496197 1.48009 0.34038 0.174306
0.486883 0.675722 0.808022 0.602266 -0.312188 0.704478
0.503656 0.584719 0.572 0.532449 1.58429 0.576467
0.52935 0.458251 0.535952 0.896569 -0.471806 0.547904
0.462342 0.373587 0.511987 -0.409 0.164163 0.0682473
0.543653 0.566496 0.0999499 0.550887 0.569244 -0.90002
0.522807 0.708078 0.871875 0.786247 0.821492 1.82986
0.568709 0.505829 0.358897 1.4733 0.0795592 0.358181
0.482815 0.582094 0.777065 0.941578 1.46107 0.90723
0.486182 0.575052 0.818411 -0.0942133 1.38934 0.827413
0.528642 0.303964 0.694365 1.01896 1.1528 0.892032
0.478759 0.453567 0.849515 0.174182 -0.495591 0.769938
0.475851 0.25992 0.855049 -0.0527686 -0.461571 1.30228
0.479658 0.453358 0.848569 0.175081 -0.4958 0.768992
0.479101 0.582477 0.118333 0.0711981 1.4955 0.11891
0.516974 0.686141 0.758781 1.09847 -0.121546 0.661304
0.541764 0.273407 0.619461 1.21956 -0.453876 0.511495
0.438175 0.515622 0.0997179 0.450323 0.507548 -0.900176
0.52246 0.317208 0.799924 0.858664 1.25896 0.79103
0.467506 0.729429 0.706125 -0.321932 1.26113 0.399395
0.497955 0.754764 0.749194 0.527655 1.75246 0.810185
0.463171 0.598466 0.631889 -0.526721 0.537722 0.760048
0.541672 0.465712 0.626953 1.33627 -0.141155 0.608856
0.537997 0.719915 0.724732 1.50722 0.964401 0.69595
0.43949 0.484224 0.800188 -0.216874 -0.270209 0.804146
0.429487 0.513004 0.851706 -0.51236 0.203369 0.98228
0.538794 0.282831 0.769518 1.53509 0.366036 0.747904
0.534685 0.4608 0.127188 1.00644 -0.42093 0.126659
0.470658 0.704398 0.862299 -0.369318 0.616687 1.39779
0.536721 0.280228 0.679182 1.47898 -0.0141455 0.838829
0.477567 0.487639 0.0999271 0.477173 0.486068 -0.900072
0.527803 0.317966 0.628706 1.43264 0.743264 0.648533
0.562537 0.494763 0.675043 1.3922 -0.0634365 0.683377
0.464863 0.30323 0.643494 -0.508512 0.484062 0.784352
0.512379 0.324658 0.646107 1.00832 1.16983 0.845417
0.49154 0.289961 0.877449 0.561452 0.798609 1.73558
0.540043 0.282504 0.8258 1.53634 0.365709 0.804185
0.544108 0.468559 0.861286 1.13153 -0.139268 1.39559
0.459275 0.571131 0.62713 -0.248529 1.27745 0.638554
0.524142 0.554874 0.0998616 0.527349 0.555324 -0.900133
0.5187 0.447586 0.537314 1.06189 0.662184 1.34904
0.437538 0.546571 0.798803 -0.270267 1.25289 0.810227
0.537177 0.435605 0.493759 1.48046 0.354348 0.171868
0.471721 0.290658 0.878464 -0.332858 0.791673 1.19727
0.465926 0.409467 0.530458 -0.138833 0.435973 1.32643
0.503854 0.58548 0.269132 0.643593 1.57567 0.267703
0.525307 0.726478 0.668314 0.780506 1.56047 0.179104
0.473359 0.39653 0.480905 -0.419038 0.272954 0.0469044
0.487295 0.680911 0.765877 -0.0992171 -0.108133 0.583085
0.518091 0.251396 0.783485 0.978114 -0.636511 0.784281
0.550999 0.467882 0.778762 1.44832 0.0314855 0.712569
0.534909 0.347902 0.52281 1.48035 0.153713 0.261201
0.515794 0.250003 0.827332 1.02315 -0.578603 0.590682
0.545018 0.488605 0.0999103 0.547987 0.488805 -0.900085
0.467341 0.599826 0.643638 -0.451823 0.541662 1.03319
0.556707 0.482812 0.454965 1.38637 -0.0753876 0.463299
0.526111 0.31062 0.857427 0.768294 0.950026 1.58716
0.46896 0.306132 0.833182 -0.1736 1.03275 0.589982
0.481287 0.650928 0.678612 0.782975 -0.211185 1.08573
0.526603 0.352756 0.580089 1.41383 0.726325 0.850781
0.510377 0.720774 0.650802 0.765575 1.55477 0.161591
0.494372 0.448228 0.542602 0.153959 0.699755 1.44861
0.443144 0.480791 0.579187 -0.247693 -0.242219 0.578444
0.471772 0.601931 0.585256 -0.137627 0.453216 -0.193536
0.523519 0.402525 0.544975 1.39685 0.411676 1.03201
0.566148 0.503991 0.854616 1.43104 0.195948 1.25094
0.483574 0.678702 0.787352 -0.102939 -0.110342 0.60456
0.45379 0.721651 0.752496 -0.160051 1.50456 0.651254
0.539868 0.434498 0.504289 1.5221 0.478771 0.686677
0.467531 0.271229 0.859969 -0.430858 -0.102096 1.09132
0.539696 0.463453 0.71389 0.965883 -0.441047 0.698241
0.50849 0.267938 0.872105 0.634177 -0.106675 1.79073
0.503317 0.250778 0.600697 0.577656 -0.542149 -0.00406766
0.477112 0.671529 0.839051 -0.1094 -0.117515 0.656259
0.533087 0.461738 0.426213 1.10672 -0.357284 0.438334
0.478226 0.270775 0.875368 -0.0503941 -0.450716 1.3226
0.462679 0.43219 0.526402 -0.513932 0.564446 0.695925
0.430736 0.537072 0.841037 -0.522112 0.499956 0.539866
0.512396 0.320793 0.846689 0.816157 1.27027 0.925605
0.433074 0.516073 0.836228 -0.519774 0.478957 0.535056
0.512453 0.319956 0.712538 0.848657 1.2617 0.703644
0.439028 0.485087 0.102901 -0.285988 -0.203638 0.106134
0.474601 0.455622 0.840912 0.170025 -0.493536 0.761335
0.479133 0.315428 0.807993 -0.189603 1.05891 0.813273
0.463947 0.476674 0.0999264 0.464118 0.478934 -0.900071
0.46818 0.626502 0.6496 -0.450984 0.568338 1.03916
0.485504 0.627237 0.662437 0.519427 0.57502 1.6605
0.558509 0.540806 0.877865 1.38546 0.47667 1.43647
0.525601 0.379063 0.478121 1.31465 0.36255 -0.135992
0.470064 0.558413 0.884003 -0.12443 1.03666 1.53042
0.540933 0.464563 0.671246 0.908151 -0.465495 0.683198
0.482198 0.584329 0.716211 0.194542 1.5416 0.686578
0.504656 0.490592 0.901085 0.803897 0.00154034 1.7204
0.476209 0.705465 0.865419 0.106117 0.266977 1.68442
0.456757 0.469054 0.771985 -0.199608 -0.285379 0.775943
0.520387 0.317633 0.766549 0.856591 1.25938 0.757655
0.463205 0.698179 0.782779 -0.46581 0.332047 0.836424
0.554936 0.483691 0.727904 1.45225 0.0472952 0.66171
0.485547 0.483219 0.896026 0.255448 -0.199182 1.58984
0.501281 0.357382 0.58521 0.467731 1.08605 1.26925
0.512784 0.608305 0.658745 1.07604 0.372024 1.45052
0.482876 0.669794 0.710811 -0.19096 0.108475 1.1913
0.477914 0.307309 0.867923 -0.326666 0.808325 1.18673
0.519951 0.341764 0.498173 0.558175 -0.338343 -0.233943
0.439022 0.552057 0.854269 -0.374935 1.13001 0.795604
0.51408 0.607955 0.657719 1.07734 0.371674 1.4495
0.532959 0.262768 0.635853 1.21075 -0.464515 0.527886
0.533687 0.622429 0.60229 1.43981 0.734897 0.194495
0.490977 0.741458 0.869487 0.619669 1.42444 1.58849
0.485135 0.605279 0.656345 0.0313439 0.285101 1.48795
0.467332 0.308033 0.662848 -0.332066 0.906632 0.714256
0.525578 0.315872 0.776246 0.861782 1.25762 0.767352
0.496631 0.588801 0.577504 0.478538 0.664536 -0.41946
0.486318 0.469141 0.0999132 0.486488 0.4714 -0.900084
0.468637 0.345114 0.513063 -0.402705 0.13569 0.0693237
0.488626 0.337536 0.616645 0.0546707 1.10798 1.08365
0.507206 0.451542 0.449306 0.47944 -0.548039 0.457405
0.559393 0.552344 0.782442 1.30882 1.21434 0.771757
0.496511 0.364815 0.577433 0.866594 0.840508 1.3754
0.549814 0.499479 0.885993 1.37677 0.435344 1.4446
0.502489 0.258367 0.590644 0.576828 -0.53456 -0.0141205
0.495996 0.45105 0.856634 0.297641 -0.507459 1.06137
0.470223 0.686342 0.843704 -0.432342 0.32547 0.608868
0.511173 0.595738 0.656141 1.07443 0.359456 1.44792
0.473055 0.328709 0.612604 -0.235497 0.981174 0.881387
0.510981 0.680294 0.722077 0.338563 -0.0821771 1.3457
0.539623 0.28055 0.845776 1.52192 0.288938 1.03291
0.516764 0.318973 0.851768 0.820525 1.26845 0.930685
0.508084 0.448055 0.715773 0.947067 -0.450362 0.703848
0.539846 0.303454 0.604722 1.42707 0.677023 0.875414
0.533809 0.261563 0.675071 1.53225 0.236133 0.625476
0.451186 0.550622 0.872407 -0.143308 1.02887 1.51882
0.522848 0.582775 0.252348 0.662587 1.57296 0.250918
0.512524 0.734145 0.871616 0.775964 0.847559 1.8296
0.521438 0.590184 0.582222 1.19021 0.51557 -0.157489
0.481211 0.747307 0.859253 -0.160561 1.3877 1.28118
0.521393 0.251923 0.636291 1.19919 -0.47536 0.528325
0.542964 0.466492 0.571613 0.381085 -0.520268 0.561673
0.539265 0.479515 0.879074 1.12668 -0.128312 1.41338
0.4716 0.270683 0.867387 -0.0570199 -0.450808 1.31461
0.54887 0.469966 0.857651 1.13629 -0.137861 1.39196
0.505009 0.679643 0.849385 0.680591 -0.249471 1.17483
0.508553 0.6808 0.784287 0.635106 -0.305452 0.678024
0.539255 0.262389 0.814692 0.999278 -0.625518 0.815489
0.557092 0.480287 0.855954 1.42198 0.172244 1.25228
0.565644 0.510479 0.860759 1.43054 0.202436 1.25708
0.472408 0.607311 0.650183 0.0186168 0.287133 1.48178
0.499105 0.737087 0.872185 0.627797 1.42007 1.59119
0.545759 0.567039 0.275281 1.21524 1.30987 0.276525
0.466136 0.709201 0.855993 -0.37384 0.62149 1.39148
0.505832 0.449465 0.188155 0.478066 -0.550117 0.196254
0.543204 0.568457 0.64525 1.29263 1.23045 0.634564
0.528565 0.449061 0.530323 1.07175 0.663658 1.34205
0.435151 0.540669 0.204017 -0.43785 1.02838 0.200842
0.5248 0.454561 0.475061 1.31385 0.438048 -0.139052
0.479244 0.585279 0.859183 0.289919 1.39084 1.42063
0.493736 0.313555 0.863284 0.563647 0.822203 1.72142
0.480326 0.74329 0.864003 -0.161446 1.38368 1.28593
0.544296 0.282158 0.638033 1.48656 -0.0122154 0.79768
0.568126 0.52147 0.153277 1.54429 0.738504 0.153842
0.434396 0.497447 0.83434 -0.518452 0.460331 0.533169
0.4873 0.675775 0.807978 0.602684 -0.312134 0.704434
0.539899 0.282927 0.844219 1.5222 0.291315 1.03135
0.521035 0.583154 0.337054 0.660774 1.57334 0.335624
0.433059 0.538009 0.865068 -0.161435 1.01626 1.51149
0.487295 0.658182 0.68952 0.788983 -0.203931 1.09664
0.509544 0.274074 0.874463 0.635232 -0.10054 1.79309
0.489141 0.457705 0.0998867 0.489547 0.460423 -0.90011
0.544383 0.567458 0.666009 1.29381 1.22946 0.655324
0.471766 0.310962 0.840197 -0.170794 1.03758 0.596997
0.521986 0.672051 0.701599 1.25641 0.170854 1.15923
0.523427 0.688137 0.853697 1.05693 -0.110415 1.13242
0.540261 0.278929 0.822124 1.53656 0.362134 0.80051
0.463877 0.697488 0.789702 -0.465138 0.331357 0.843347
0.539577 0.709987 0.789352 1.52452 0.882689 0.796762
0.445586 0.548693 0.0992103 0.550483 0.44283 -0.889622
0.55426 0.475557 0.126401 1.45886 0.0492874 0.125684
0.540464 0.571102 0.61692 1.28989 1.2331 0.606235
0.461426 0.274208 0.620003 -0.535308 0.251556 0.542489
0.430804 0.525582 0.25827 -0.568892 0.501643 0.264148
0.566043 0.530964 0.105059 1.54221 0.747998 0.105623
0.538147 0.731233 0.864915 0.801587 0.844647 1.8229
0.540025 0.469162 0.866461 1.12744 -0.138665 1.40077
0.470911 0.727618 0.8665 -0.369065 0.639907 1.40199
0.489279 0.541077 0.904158 0.627425 1.0284 1.76638
0.539669 0.7412 0.838028 1.52469 0.79223 0.673336
0.486066 0.750362 0.713326 0.312116 1.66256 0.34233
0.46246 0.405418 0.52796 -0.142299 0.431924 1.32393
0.453323 0.56745 0.433762 -0.265488 1.2626 0.442433
0.496418 0.450168 0.691404 0.176012 -0.497073 0.682846
0.44898 0.564714 0.292965 -0.269832 1.25987 0.301637
0.499571 0.486417 0.0999203 0.499177 0.484846 -0.900078
0.539145 0.283717 0.789085 1.53544 0.366922 0.767471
0.488245 0.680179 0.767013 0.603629 -0.30773 0.663469
0.527652 0.383267 0.541813 1.34889 0.8064 0.924592
0.473459 0.660614 0.686881 -0.200377 0.0992958 1.16737
0.467556 0.339118 0.585097 -0.102259 0.966706 1.11561
0.527381 0.269963 0.867935 1.27755 -0.236544 1.29302
0.472956 0.577343 0.86845 0.283631 1.3829 1.4299
0.524971 0.624348 0.583452 1.43109 0.736815 0.175657
0.433174 0.527915 0.670811 -0.566522 0.503976 0.67669
0.489115 0.714943 0.642645 0.0355163 1.42914 0.109566
0.473983 0.260557 0.853869 -0.0546364 -0.460934 1.3011
0.543617 0.280642 0.639243 1.48588 -0.0137311 0.79889
0.4927 0.256751 0.869703 0.618388 -0.117862 1.78833
0.547114 0.565959 0.0999735 0.554348 0.568707 -0.899997
0.538787 0.60535 0.629024 1.37763 0.60546 1.1734
0.542018 0.734227 0.862356 1.34388 0.410217 1.36439
0.532684 0.304589 0.681655 1.023 1.15342 0.879322
0.52759 0.654602 0.605118 1.38739 0.915842 0.166378
0.485509 0.312905 0.65689 0.269077 1.28646 0.583713
0.512244 0.268459 0.581201 1.11421 -0.430492 0.195057
0.513185 0.280699 0.562679 0.587524 -0.512228 -0.0420855
0.470042 0.727022 0.695426 -0.319396 1.25872 0.388696
0.487902 0.4464 0.467645 0.436028 0.373291 -0.528329
0.458343 0.46447 0.839681 -0.163892 -0.237514 0.493211
0.471816 0.338811 0.590036 -0.0979983 0.9664 1.12055
0.49564 0.451492 0.403494 0.467874 -0.548089 0.411592
0.454585 0.464235 0.846908 -0.16765 -0.237749 0.500438
0.451345 0.564786 0.483343 -0.267466 1.25994 0.492015
0.55458 0.558991 0.279128 1.24602 1.28142 0.282155
0.549818 0.564363 0.819228 1.30718 1.21712 0.801455
0.460656 0.273204 0.829131 -0.512734 0.0531417 0.765219
0.466051 0.692065 0.850943 -0.436514 0.331193 0.616108
0.552741 0.560973 0.819314 1.3101 1.21373 0.801541
0.469938 0.609452 0.589326 -0.42714 0.71945 0.161363
0.465343 0.693428 0.851569 -0.437222 0.332557 0.616734
0.531418 0.59503 0.640382 1.37026 0.59514 1.18475
0.495047 0.592406 0.577806 0.476954 0.668142 -0.419158
0.457845 0.569741 0.624462 -0.249959 1.27606 0.635886
0.497433 0.396524 0.472499 0.550903 0.255179 -0.516016
0.521792 0.545647 0.896366 0.659938 1.03297 1.75859
0.531546 0.25858 0.655189 1.20934 -0.468703 0.547222
0.464066 0.731516 0.758891 -0.410312 1.20884 0.846229
0.538347 0.57438 0.605117 1.5358 0.517117 0.647681
0.468087 0.313141 0.637298 -0.240465 0.965605 0.906081
0.511678 0.321335 0.842921 0.815438 1.27081 0.921838
0.497345 0.244391 0.824591 0.336643 -0.733242 0.688914
0.554985 0.481467 0.743238 1.4523 0.0450704 0.677044
0.554349 0.477947 0.757813 1.45166 0.041551 0.691619
0.569185 0.510958 0.833286 1.52943 0.232667 0.855189
0.472807 0.453701 0.532981 0.132394 0.705227 1.43899
0.471097 0.666603 0.612584 -0.0364966 1.10282 -0.130426
0.498267 0.341723 0.608859 0.99421 1.1869 0.80817
0.499038 0.554805 0.894835 0.637184 1.04212 1.75706
0.561387 0.550732 0.556305 1.53755 0.767765 0.55687
0.537403 0.708213 0.661391 1.53225 0.796474 0.611486
0.473251 0.579834 0.165314 0.0653485 1.49286 0.165891
0.530877 0.577249 0.67157 0.913769 1.50101 0.679815
0.484383 0.295527 0.874733 0.554295 0.804175 1.73286
0.467496 0.637293 0.601599 -0.429581 0.747291 0.173636
0.539336 0.713749 0.73372 1.52428 0.886451 0.741131
0.468681 0.64006 0.652806 -0.450483 0.581896 1.04236
0.529861 0.697003 0.755631 1.17113 -0.0613688 0.638787
0.431384 0.507481 0.852292 -0.510463 0.197845 0.982866
0.528688 0.411506 0.481215 1.31773 0.394994 -0.132898
0.481638 0.453599 0.10039 0.317671 -0.532865 0.0984844
0.511787 0.349265 0.594372 0.478237 1.07794 1.27841
0.559001 0.485988 0.85622 1.42389 0.177945 1.25254
0.525262 0.255279 0.637973 1.20305 -0.472004 0.530007
0.523187 0.583175 0.802846 1.06377 1.42339 0.760363
0.469348 0.737058 0.856763 -0.172424 1.37745 1.27869
0.550448 0.559846 0.0999808 0.557681 0.562595 -0.899989
0.470414 0.25577 0.745277 -0.174516 -0.5084 0.755685
0.460185 0.272647 0.658294 -0.532362 0.392431 0.680696
0.508139 0.569786 0.881736 0.638398 1.24959 1.60347
0.463142 0.395115 0.528821 -0.141617 0.421622 1.32479
0.521801 0.408949 0.545453 1.06499 0.623547 1.35718
0.529127 0.688591 0.810987 1.11062 -0.119097 0.71351
0.434626 0.504068 0.820501 -0.565071 0.480129 0.82638
0.458957 0.570727 0.632413 -0.248847 1.27704 0.643836
0.553256 0.560825 0.835816 1.31062 1.21358 0.818043
0.467922 0.325116 0.607793 -0.24063 0.977581 0.876576
0.547319 0.565909 0.110225 1.2168 1.30874 0.111469
0.533192 0.714315 0.863602 1.33505 0.390306 1.36564
0.52855 0.50334 0.898254 0.979626 0.517326 1.79063
0.539559 0.465362 0.545945 1.33416 -0.141504 0.527848
0.468698 0.458496 0.761304 -0.253437 -0.233221 0.768299
0.530984 0.435484 0.53097 1.40432 0.444636 1.01801
0.490633 0.352404 0.589991 0.457082 1.08108 1.27403
0.536259 0.300239 0.62308 1.4411 0.725536 0.642907
0.552011 0.558613 0.0999887 0.559245 0.561361 -0.899981
0.570566 0.520373 0.85767 1.39752 0.456237 1.41627
0.47014 0.357943 0.565603 -0.0996745 0.985531 1.09612
0.43332 0.540515 0.683844 -0.439681 1.02822 0.680669
0.52135 0.734956 0.680703 0.776549 1.56895 0.191492
0.529737 0.579038 0.590849 1.19851 0.504423 -0.148861
0.4597 0.685061 0.6495 -0.49861 0.400689 0.677348
0.465208 0.303762 0.687108 -0.203528 1.04724 0.692388
0.46347 0.460209 0.284312 -0.261546 -0.228516 0.287545
0.471542 0.465256 0.873714 0.241443 -0.217145 1.56753
0.462673 0.290637 0.663498 -0.525689 0.438747 0.628808
0.561364 0.549751 0.806258 1.48835 0.924365 0.825213
0.459666 0.419738 0.518757 -0.516946 0.551994 0.68828
0.515399 0.754746 0.740987 0.5451 1.75244 0.801978
0.510178 0.720725 0.650613 0.765377 1.55472 0.161403
0.433901 0.516052 0.833612 -0.518946 0.478935 0.532441
0.504726 0.650931 0.684447 0.332308 -0.111541 1.30807
0.49753 0.590008 0.65723 0.0437387 0.26983 1.48883
0.432442 0.532419 0.868123 -0.156101 0.954409 1.55772
0.528007 0.61432 0.587434 1.43413 0.726788 0.179639
0.550385 0.562075 0.501428 1.24182 1.2845 0.504455
0.569349 0.508271 0.590457 1.55451 0.679856 0.593757
0.434214 0.513154 0.83298 -0.518634 0.476038 0.531809
0.475958 0.455788 0.833737 0.171382 -0.49337 0.75416
0.542737 0.718421 0.849322 1.52776 0.769452 0.684631
0.505943 0.683112 0.759718 0.632496 -0.303139 0.653456
0.460891 0.572682 0.631289 -0.246914 1.279 0.642712
0.463017 0.702748 0.810709 -0.465998 0.336617 0.864354
0.551193 0.47424 0.429726 1.38086 -0.0839602 0.43806
0.466138 0.459809 0.62681 -0.255997 -0.231908 0.633805
0.506712 0.45126 0.412835 0.478946 -0.548321 0.420934
0.535181 0.459629 0.81195 0.961368 -0.444871 0.796301
0.50695 0.753516 0.771803 0.688423 1.73394 0.695396
0.569813 0.518659 0.820366 1.54565 0.725804 0.750921
0.473238 0.556239 0.888365 -0.115305 0.978229 1.57796
0.4626 0.447437 0.514048 -0.514012 0.579693 0.683571
0.466572 0.259777 0.837763 -0.431817 -0.113548 1.06912
0.509238 0.70468 0.876008 0.772678 0.818094 1.83399
0.524861 0.704509 0.87058 1.32672 0.3805 1.37262
0.490756 0.614157 0.661574 0.524679 0.56194 1.65963
0.539571 0.441571 0.504169 1.5218 0.485844 0.686557
0.501201 0.677626 0.805809 0.616584 -0.310283 0.702265
0.539038 0.712066 0.812464 1.52398 0.884768 0.819875
0.513477 0.326842 0.634118 1.00942 1.17201 0.833429
0.519598 0.45254 0.443094 1.09323 -0.366482 0.455214
0.461686 0.403347 0.527441 -0.143073 0.429853 1.32341
0.471461 0.720988 0.676305 -0.264262 1.35324 0.433483
0.550521 0.56376 0.827048 1.30788 1.21651 0.809274
0.494339 0.450661 0.714748 0.173933 -0.496581 0.70619
0.515712 0.45307 0.551753 0.882931 -0.476988 0.563705
0.526232 0.326739 0.617209 1.41346 0.700308 0.887901
0.510598 0.275072 0.569739 0.584937 -0.517855 -0.0350253
0.568944 0.515718 0.324063 1.55411 0.687303 0.327363
0.566691 0.501449 0.821818 1.52694 0.223159 0.843721
0.534641 0.695636 0.64337 1.39444 0.956876 0.204631
0.523395 0.454041 0.853434 0.941875 -0.453099 0.897838
0.504857 0.33625 0.615672 1.0008 1.18142 0.814982
0.478118 0.442533 0.538076 0.137705 0.69406 1.44409
0.485873 0.249992 0.608066 -0.23554 -0.406 0.386167
0.452767 0.715222 0.718917 -0.505543 0.430851 0.746764
0.53753 0.296979 0.634993 1.44237 0.722276 0.65482
0.483768 0.406069 0.555397 -0.333545 0.682151 1.06114
0.53869 0.294564 0.633863 1.44353 0.719861 0.65369
0.536184 0.289571 0.699582 1.47845 -0.00480215 0.859229
0.525941 0.579203 0.681845 0.908833 1.50296 0.690091
0.527975 0.739308 0.709734 1.31772 1.34118 0.59119
0.462335 0.61299 0.632315 -0.527557 0.552246 0.760474
0.502575 0.418678 0.547626 0.341485 0.47142 1.53316
0.515687 0.630443 0.662428 0.343269 -0.132029 1.28605
0.533904 0.582174 0.5943 1.20268 0.50756 -0.145411
0.47981 0.420022 0.541385 -0.337503 0.696104 1.04713
0.532258 0.260426 0.647226 1.21005 -0.466857 0.53926
0.461138 0.556091 0.0996701 0.473287 0.548016 -0.900224
0.541142 0.700776 0.795943 1.52609 0.873478 0.803354
0.538206 0.459786 0.507101 1.52044 0.504059 0.68949
0.446982 0.477378 0.331351 -0.243855 -0.245632 0.330608
0.479721 0.469549 0.099913 0.479892 0.471809 -0.900084
0.49927 0.423927 0.546805 0.33818 0.476669 1.53233
0.562174 0.547321 0.50619 1.53834 0.764355 0.506755
0.487672 0.31589 0.862394 0.557584 0.824538 1.72053
0.494009 0.619906 0.579883 0.474622 0.694017 -0.417179
0.488155 0.491823 0.905353 0.258056 -0.190579 1.59917
0.524671 0.580152 0.531782 0.950514 1.48491 0.539947
0.471519 0.424286 0.478322 -0.169019 0.436148 -0.289512
0.493096 0.362463 0.580419 0.86318 0.838156 1.37839
0.503558 0.575136 0.0998048 0.506766 0.575587 -0.90019
0.499479 0.449314 0.671399 0.179073 -0.497928 0.662841
0.456834 0.715492 0.790607 -0.472182 0.349361 0.844252
0.511306 0.320864 0.850024 0.815066 1.27034 0.928941
0.532368 0.744733 0.766544 1.32211 1.34661 0.648
0.502661 0.707935 0.877432 0.766101 0.821348 1.83542
0.501878 0.461661 0.880238 0.271779 -0.220741 1.57406
0.512255 0.350455 0.490654 0.299999 -0.190455 -0.323203
0.475431 0.745197 0.713062 -0.314007 1.2769 0.406331
0.529128 0.307546 0.732614 1.29501 0.945268 0.650538
0.536304 0.283711 0.863057 1.5186 0.292099 1.05019
0.4608 0.646274 0.617945 -0.436278 0.756271 0.189981
0.519354 0.617014 0.579175 0.499967 0.691125 -0.417886
0.47742 0.602592 0.651101 0.0236291 0.282414 1.4827
0.538624 0.268617 0.768373 1.53707 0.243187 0.718777
0.509282 0.586293 0.661167 0.892174 1.51005 0.669412
0.530183 0.746811 0.842235 0.912303 1.66549 0.942276
0.462553 0.267421 0.832686 -0.488749 0.0248782 1.02294
0.549214 0.550721 0.0999468 0.556447 0.553469 -0.900023
0.462232 0.422469 0.527219 -0.142527 0.448975 1.32319
0.538962 0.465668 0.509443 1.33356 -0.141199 0.491345
0.49444 0.674696 0.826235 0.609824 -0.313214 0.722691
0.508958 0.449001 0.859599 0.310603 -0.509508 1.06433
0.534163 0.701747 0.74845 1.17543 -0.0566244 0.631607
0.557168 0.472709 0.849899 1.42206 0.164666 1.24622
0.495241 0.750713 0.709887 0.321291 1.66291 0.338892
0.533334 0.578356 0.204046 1.20281 1.32119 0.205289
0.431962 0.514835 0.287101 -0.5525 0.339262 0.28417
0.492465 0.667699 0.598761 0.402496 1.03334 -0.327638
0.519118 0.681609 0.843242 1.05263 -0.116943 1.12196
0.479462 0.602866 0.652321 0.025671 0.282688 1.48392
0.544902 0.279943 0.63037 1.48716 -0.0144307 0.790017
0.535778 0.261012 0.842452 1.28595 -0.245494 1.26754
0.465097 0.460146 0.552678 -0.257038 -0.231571 0.559672
0.500865 0.590548 0.577559 0.482773 0.666283 -0.419404
0.461861 0.619578 0.608858 -0.435216 0.729575 0.180894
0.51415 0.32681 0.632577 1.01009 1.17198 0.831887
0.471958 0.579142 0.346872 0.0640552 1.49217 0.347449
0.555508 0.557505 0.809854 1.31287 1.21026 0.792081
0.565914 0.533016 0.808411 1.54176 0.740162 0.738965
0.429278 0.523223 0.847357 -0.52357 0.486107 0.546186
0.495649 0.325871 0.850054 0.79941 1.27534 0.928971
0.507139 0.368489 0.480002 0.294883 -0.172421 -0.333855
0.4735 0.45605 0.840026 0.168923 -0.493108 0.760448
0.54304 0.569055 0.6708 1.29247 1.23105 0.660115
0.488919 0.319546 0.735155 0.272487 1.2931 0.661978
0.475197 0.716536 0.656622 0.0215982 1.43073 0.123543
0.529976 0.556303 0.099881 0.533184 0.556754 -0.900114
0.521478 0.354836 0.588913 0.487928 1.08351 1.27295
0.460582 0.573144 0.518013 0.0242116 1.47291 0.520995
0.464523 0.367291 0.510675 -0.406819 0.157868 0.0669353
0.470854 0.69897 0.740679 -0.115658 -0.0900745 0.557887
0.501812 0.384073 0.474516 0.555282 0.242728 -0.513999
0.513528 0.240194 0.85682 1.02088 -0.588412 0.62017
0.542868 0.286216 0.622261 1.4477 0.711514 0.642088
0.478229 0.756141 0.736269 0.50793 1.75384 0.797261
0.464931 0.271929 0.85032 -0.486372 0.0293855 1.04057
0.510063 0.555716 0.0998199 0.513033 0.555916 -0.900176
0.47937 0.446095 0.47211 -0.161168 0.457956 -0.295725
0.470861 0.686031 0.85089 0.154682 0.0497592 1.55459
0.546902 0.553524 0.0999377 0.554136 0.556273 -0.900032
0.556383 0.48371 0.547388 1.38605 -0.0744903 0.555721
0.470652 0.352631 0.505559 -0.40069 0.143207 0.0618197
0.459458 0.266499 0.658925 -0.533089 0.386283 0.681327
0.467871 0.551179 0.0997915 0.480019 0.543104 -0.900102
0.525529 0.434942 0.536087 1.06871 0.649539 1.34781
0.463897 0.314189 0.622749 -0.509478 0.495021 0.763607
0.503226 0.754596 0.854815 0.631918 1.43758 1.57382
