0.0329981 0.234007 -0.0261611 0.388508 0.72945 -0.81872
-0.112684 0.231566 0.0737328 0.155991 -0.29799 0.878335
-0.158397 0.262173 0.104222 -0.678279 0.472478 0.932168
-0.174172 0.277341 0.0100588 -1.066 0.683813 -0.18847
0.111838 0.0991015 0.0189053 0.768987 -0.611869 -0.231443
-0.116286 0.0998016 0.00952473 -1.0214 0.354303 0.350101
-0.0923738 0.14276 -0.0328921 -0.491531 -0.0683826 -0.925132
-0.059769 0.13098 -0.0528509 -0.953691 -0.110444 -0.430498
-0.091264 0.0859982 -0.0269799 -0.828049 0.686767 -0.337181
-0.0609849 0.0683668 0.0312194 0.482008 -0.757494 -0.120811
0.0457452 0.175703 0.0969296 0.489671 0.44486 0.951614
-0.152545 0.331722 -0.0493865 -0.85214 0.974856 0.261975
-0.117356 0.221964 0.0744091 -0.127549 0.761428 0.916356
-0.168285 0.154643 0.0247286 -0.998161 -0.403139 0.01112
-0.0776932 0.250578 0.0459019 -0.21649 1.13012 0.501026
-0.0753543 0.198819 0.0843232 -0.2431 0.391014 1.05124
-0.165357 0.306494 0.0499331 -0.453412 1.23665 0.277613
0.114383 0.118864 0.0472708 0.919781 0.00077915 0.628124
-0.175352 0.295463 0.0187304 -0.9623 0.36479 -0.594382
0.0478832 0.138626 0.0921773 0.707141 -0.102794 0.804284
-0.106775 0.12157 0.0553538 -0.345346 -0.753005 0.477494
-0.162929 0.212997 -0.00695941 -0.829208 0.599568 -0.644638
-0.00952594 0.260784 0.0388505 -0.174033 1.24048 0.153493
-0.0294691 0.0770839 0.0554279 0.000755318 -0.920529 0.117511
-0.0929795 0.257963 0.00125612 0.111878 1.18102 -0.324309
-0.116521 0.298365 -0.00324732 -0.462324 0.693043 -0.854511
-0.0976966 0.0812436 -0.0233141 -0.412764 0.287221 -0.949762
-0.115482 0.0849701 -0.0148786 -0.420898 0.684092 -0.754997
-0.174366 0.17248 0.00799306 -1.06223 -0.170145 -0.299102
-0.0998381 0.281846 0.0275864 0.78163 0.663704 0.305433
0.0641259 0.167235 -0.0390238 0.594389 0.142857 -0.886506
-0.119435 0.253482 0.0819415 0.227011 0.701635 0.906037
-0.101719 0.273139 0.0481874 0.709243 0.818263 0.260743
-0.114328 0.11651 0.00380757 -1.1141 0.0977781 0.0142966
-0.0695912 0.244936 -0.0171168 0.29411 0.882812 -0.695965
-0.0872675 0.0966431 -0.0210944 -0.350438 0.455291 -0.916702
0.0825876 0.207136 0.0221332 0.995895 0.614374 0.0272921
-0.0809706 0.126603 -0.0267449 -0.389503 -0.414454 -0.809091
-0.0403234 0.0991532 0.0942463 -0.0298519 0.885218 0.712302
0.00673704 0.233908 -0.0333978 -0.0490627 0.860874 -0.810444
-0.123751 0.0715757 0.0377674 -0.833278 0.390307 0.666243
-0.132235 0.120304 0.0271417 -0.469612 -0.783338 0.290975
0.00393788 0.0681252 0.0155276 0.119682 -0.924247 -0.0269041
-0.0148664 0.125273 0.111215 -0.226009 0.184146 1.0869
-0.0169718 0.0697754 0.0897882 0.0136269 -0.918044 0.242353
-0.0224967 0.0974982 -0.0614633 -0.165815 -0.431506 -0.897893
-0.182023 0.232102 0.0805666 -0.985685 -0.205791 0.483527
0.0324355 0.21414 -0.0363907 0.409703 0.597375 -0.87948
-0.0167569 0.0862173 0.0977294 0.300281 0.127443 1.04525
-0.0549674 0.0759066 0.0745222 0.11129 -0.743425 -0.474162
-0.143094 0.135635 -0.00539036 -0.756684 -0.581099 -0.33675
-0.0541716 0.217275 0.0787991 -0.265498 0.712466 0.921489
-0.112967 0.242662 0.077263 0.536171 0.0389827 0.810157
0.0977818 0.116006 0.0615458 0.598801 -0.0197035 0.916275
-0.0332806 0.128924 -0.0741577 -0.0899329 -0.162775 -1.02899
-0.0960231 0.152308 0.0852849 0.0631058 -0.072878 1.04652
-0.131544 0.199037 -0.0337913 -0.48778 0.30858 -0.961744
-0.0692258 0.138717 -0.0336211 -0.462186 -0.275937 -0.85438
0.0384674 0.146335 -0.0564451 0.464579 0.247427 -0.95545
-0.0304684 0.253254 0.0485166 -0.3919 1.09015 0.459572
0.0422276 0.104905 0.0895838 0.505816 -0.466208 0.767017
-0.12082 0.240405 -0.0186072 -0.42114 0.768826 -0.812697
-0.0692511 0.0697291 0.0288461 -0.415097 -0.858411 0.16649
-0.172577 0.303246 0.0512722 -0.64684 1.16082 0.250384
-0.102537 0.112781 0.0598037 -1.09233 0.0280983 0.174445
-0.140687 0.219703 0.0783105 -0.00556871 -0.732235 0.353184
-0.178576 0.22511 0.0728892 -0.530222 -0.708226 0.000569497
0.109526 0.100907 0.00771127 0.766676 -0.610064 -0.242637
-0.117758 0.304278 0.064904 0.316642 0.960118 0.682294
-0.0547319 0.191132 0.0891715 -0.202416 0.370475 1.06181
-0.0380538 0.224041 0.0785063 -0.242124 0.751611 0.903143
0.0149973 0.262334 0.0219261 0.0980258 1.25702 -0.0389342
0.00286905 0.111631 0.108056 0.218106 0.00345659 1.07861
-0.0548231 0.363196 -0.020228 -0.641807 1.16259 -0.148394
-0.0719544 0.0800916 0.0930549 -0.915224 0.202432 0.616438
-0.0681698 0.0682899 0.050733 -0.307918 -0.900825 -0.0070282
0.0711154 0.121381 0.0747011 0.806144 -0.280052 0.621129
-0.140512 0.28205 -0.0157728 -0.587009 -0.222869 -0.754486
-0.0656157 0.169636 0.0848372 -0.181517 -0.13355 1.03069
0.013361 0.125457 -0.0642037 0.32663 -0.106582 -0.985084
0.0737014 0.150034 0.0726979 0.658918 0.165155 0.883434
-0.116123 0.203964 -0.0369132 -0.34697 0.375655 -0.994635
-0.0988152 0.102218 0.0708267 -1.04522 0.00648628 0.379282
-0.157252 0.338722 -0.0806007 -0.665453 -0.312855 -0.643786
0.00184081 0.0983651 0.102315 -0.0206604 -0.599912 0.817788
-0.0707227 0.0742344 0.0935931 -0.763204 -0.103897 0.792691
-0.0609349 0.251726 0.0160343 0.212246 1.21294 -0.0219934
-0.0751534 0.221143 -0.0370339 -0.0894019 0.75328 -0.883572
-0.0699602 0.250537 0.0420773 0.0872697 1.20044 0.312189
-0.0900142 0.261495 0.0196163 0.609223 0.936616 -0.215499
-0.0534108 0.190745 0.0894435 -0.201095 0.370087 1.06208
-0.177834 0.292251 0.0226338 -1.01019 0.17111 -0.518208
-0.0924731 0.124017 0.0766715 -0.827354 0.159382 0.753945
-0.0861482 0.25811 0.00831591 0.142804 1.22923 -0.0587565
-0.0396703 0.0730136 -0.05541 0.190711 -0.0709284 -1.01781
-0.0937318 0.105659 0.0745809 -0.574127 -0.0192294 0.942696
-0.120028 0.249209 -0.0169297 0.1949 0.434063 -0.94787
-0.178287 0.29349 0.0566853 -1.15247 0.465845 0.20253
-0.0743949 0.232448 -0.0299551 -0.0881138 0.760974 -0.878761
-0.0663496 0.190868 0.0874561 -0.214034 0.37021 1.06009
-0.137254 0.296055 0.0803564 -0.111723 0.950876 0.835709
0.012839 0.147586 -0.0669557 0.300146 0.0617434 -1.02094
0.0831242 0.0885145 -0.00494646 0.348707 -0.458031 -0.799147
-0.0760392 0.110253 -0.022455 -0.00694839 -0.0181902 -1.01176
-0.0102716 0.154775 0.117122 0.210009 0.435024 1.05143
-0.0381077 0.153464 0.110098 -0.421126 -0.191103 0.967169
-0.134762 0.357363 -0.117237 -0.438127 0.928372 -0.880074
-0.082669 0.0821652 -0.0478563 -0.694106 0.612026 -0.635557
-0.15835 0.214222 0.0649158 -0.892904 -0.152927 0.635558
-0.152502 0.185079 0.0771048 -0.809879 0.367236 0.808319
-0.0627931 0.106853 -0.0280964 -0.996992 0.243134 -0.357792
-0.15736 0.23608 -0.0107374 -0.686545 -0.0870994 -0.795287
0.0846803 0.178232 -0.0117038 0.982252 0.43173 -0.372403
0.00646344 0.13287 0.111243 0.250467 0.325221 1.06175
0.0728812 0.223838 0.0250612 0.872715 0.822813 0.0637018
-0.0838749 0.172154 -0.0430665 -0.246438 -0.0330232 -1.0082
-0.16622 0.294242 0.0742977 -0.763657 0.908528 0.589779
-0.0603532 0.252057 0.0309474 0.0974404 1.2079 0.278873
-0.119332 0.0676235 0.0284331 -0.20879 -0.927402 0.0722626
-0.119082 0.313417 0.0124891 -0.819299 1.00355 0.195275
-0.0648803 0.115692 -0.0253912 -0.979315 -0.15045 -0.330312
-0.112503 0.177243 -0.0434052 -0.373625 0.0897513 -1.00474
-0.0975887 0.241879 -0.0254345 -0.0120379 0.752566 -0.880934
0.0204998 0.151236 0.1103 0.260119 0.0328292 1.07392
-0.141267 0.284544 -0.0170217 -0.587764 -0.220375 -0.755735
-0.0507009 0.195457 0.0884732 -0.0902401 0.440739 1.05712
-0.0762969 0.311239 -0.018743 -0.125782 -0.293771 -0.813421
0.0236384 0.13225 0.107119 0.206304 -0.0100248 1.07995
-0.123572 0.27857 -0.0127726 0.16064 0.391748 -0.964831
0.0741157 0.212541 0.0554827 0.7613 0.628657 0.650987
-0.00820155 0.152879 0.117202 0.21208 0.433128 1.05151
-0.181387 0.287587 0.0451464 -1.16946 0.357655 0.182283
-0.0263866 0.326563 -0.027636 0.71159 -0.347844 -0.00385625
-0.122543 0.0858693 0.0825986 -0.928398 0.466421 0.536227
0.0938543 0.0895501 0.0468673 0.582762 -0.690108 0.438151
-0.105528 0.0861437 -0.018036 -0.410944 0.685265 -0.758154
-0.0946514 0.0855976 -0.0230061 -0.63457 0.208514 -0.8557
0.0165892 0.168237 0.110948 0.342079 0.230236 1.05446
-0.105271 0.211531 0.0804361 -0.0132958 0.637573 0.980452
-0.031645 0.368622 -0.0504037 -0.0206512 1.02095 -0.808259
-0.0388776 0.361785 -0.046854 -0.649773 0.286615 -0.834989
-0.143293 0.0744768 0.005721 -1.03305 0.498951 -0.162093
0.097075 0.107369 -0.00866652 0.359514 -0.0240578 -0.964623
-0.0104895 0.135831 0.111525 -0.221632 0.194704 1.08721
-0.122049 0.311663 0.00774239 -0.822266 1.0018 0.190528
-0.126776 0.22302 -0.0262607 -0.484804 0.610824 -0.875627
-0.0790595 0.340734 -0.0203807 -0.706903 0.755066 -0.679274
0.010731 0.109032 -0.0608306 0.294437 -0.178105 -0.975742
0.0824718 0.0979822 0.0647884 -0.0141529 -0.354036 0.951548
-0.0313533 0.187368 -0.0681701 -0.120109 0.917721 -0.745449
-0.0925576 0.0679651 0.0504916 -0.0898651 -0.930576 0.10443
0.0319725 0.205194 0.0923257 -0.0167076 0.853619 0.852047
0.0076105 0.175047 0.113009 0.206206 0.534852 1.02466
0.0482198 0.183267 0.0932623 0.492146 0.452423 0.947946
-0.0690464 0.129647 -0.0291247 -0.462007 -0.285007 -0.849883
-0.1165 0.126472 -0.0115295 -0.287627 -0.696452 -0.553297
-0.0689434 0.238348 0.0605993 -0.0241729 0.805347 0.8831
-0.0304243 0.367506 -0.0439972 0.764405 0.742344 0.433227
-0.061042 0.204313 -0.0447523 -0.239374 0.418632 -1.0051
-0.0599949 0.139841 -0.0598779 -0.968767 -0.173446 -0.335531
-0.00296567 0.0913214 0.0952891 -0.0254669 -0.606956 0.810763
-0.0209001 0.111251 0.105537 -0.297726 -0.262967 0.990595
-0.030024 0.365554 -0.0530209 -0.0190301 1.01788 -0.810876
-0.0605829 0.195273 0.0875196 -0.208267 0.374615 1.06016
-0.1297 0.333158 -0.0634411 0.696281 0.866107 0.120188
0.0921594 0.168648 0.021038 1.08769 0.209747 -0.0639721
-0.0502482 0.329638 -0.0158481 0.290819 0.880027 0.746218
0.0797357 0.134504 -0.0192205 0.935128 -0.112881 -0.474309
-0.0516528 0.0990037 -0.0517157 -0.668975 -0.160637 -0.794346
0.0355594 0.0988411 0.0890349 0.499148 -0.472272 0.766468
2.63709e-05 0.198291 -0.0487772 0.067404 1.10097 -0.473794
-0.123477 0.33514 -0.105243 0.866755 0.248349 0.00387987
-0.181322 0.237656 0.0864023 -0.912499 -0.0535219 0.703327
-0.131203 0.352914 -0.1049 0.310443 1.07934 0.421653
-0.0377894 0.322193 -0.0287732 0.216532 -0.575991 -0.387362
-0.101237 0.0986042 0.0750059 -0.115439 0.932038 0.627443
-0.000760947 0.112628 0.108936 0.0743606 0.0429082 1.10367
-0.039831 0.0752325 -0.0342441 -0.152134 -0.55264 0.735927
-0.0773307 0.124896 0.0815221 -0.234939 -0.154286 1.02874
-0.130482 0.353806 -0.120825 0.120432 0.662995 -1.03813
0.0421166 0.140613 -0.0552218 0.418254 0.175168 -0.981141
0.0123544 0.118662 0.107301 0.252241 -0.307258 0.979681
-0.00996023 0.15314 0.117377 -0.112226 0.268085 1.10547
-0.0792449 0.215367 -0.0398973 -0.140594 0.528897 -0.987492
-0.168992 0.156126 0.0129441 -1.08312 -0.244228 -0.0509517
-0.0300507 0.0907412 0.100812 0.22105 0.642305 0.896253
-0.169816 0.279455 0.0852917 -0.728667 0.795015 0.734817
-0.152216 0.235465 0.103838 -0.376496 0.0868141 1.06696
0.0759492 0.0834851 -0.00388472 0.341532 -0.46306 -0.798085
-0.105441 0.1517 0.0853736 -0.219137 -0.189455 1.01848
-0.155786 0.161072 -0.0173513 -0.842897 -0.25469 -0.613188
-0.182055 0.299372 0.0278222 -0.79411 0.970806 -0.389986
-0.120504 0.0926813 0.0643844 -0.632094 0.902606 -0.22249
-0.0477024 0.173555 -0.0735525 -0.314123 0.557759 -0.957525
-0.031263 0.161167 -0.0777874 0.12004 0.10116 -1.06445
-0.135772 0.249218 -0.0174514 -0.154659 0.285733 -1.01661
-0.0364332 0.155991 -0.0781639 0.107803 0.0699144 -1.06396
-0.144144 0.265969 0.0993312 0.354662 0.541251 0.921166
-0.062393 0.356038 -0.0120346 -0.121294 1.01426 0.738482
-0.00394771 0.255207 -0.0101904 0.21661 0.936095 -0.708578
-0.0987596 0.0685907 0.0192574 0.228563 -0.859989 0.194183
-0.0946936 0.182669 0.0884861 0.305008 0.319132 0.994917
-0.0195652 0.146862 0.113845 -0.286851 -0.187877 1.01745
-0.138103 0.253058 0.103133 0.292708 0.721301 0.874593
-0.124189 0.244172 0.0889179 0.775049 -0.00662881 0.447345
-0.0566564 0.0676385 -0.0431495 -0.0461334 -0.931648 -0.00688423
-0.168638 0.155208 0.0230988 -0.998514 -0.402573 0.00949024
0.0101437 0.154791 -0.0684158 0.297451 0.0689487 -1.0224
-0.0382162 0.371241 -0.0354567 0.701747 0.776576 0.501347
-0.145371 0.238456 -0.0161768 -0.392686 0.131762 -0.97922
-0.0747933 0.306595 0.00419417 0.483951 0.0437783 0.79079
-0.11073 0.0968797 0.058808 -0.622321 0.906804 -0.228066
-0.11699 0.236398 0.0783514 0.151684 -0.293157 0.882954
0.0776572 0.216376 0.0164217 0.919948 0.751619 -0.0473025
-0.0231445 0.344909 -0.0394125 0.360982 0.898406 0.699565
-0.0312319 0.116283 -0.0704175 -0.0878842 -0.175416 -1.02525
-0.102646 0.110742 0.0366076 -1.02203 0.0191455 -0.345943
-0.17599 0.23908 0.00376021 -0.88983 -0.111249 -0.602625
-0.0705619 0.0731186 -0.0299601 0.38802 -0.750073 0.304791
-0.0302305 0.231268 0.0761435 -0.308661 0.756793 0.880071
0.0602865 0.105683 -0.0285419 0.964218 -0.109109 -0.398368
-0.131977 0.353609 -0.10521 0.309669 1.08003 0.421343
0.0436833 0.0708022 0.0391568 0.0138936 -0.919902 -0.0935787
-0.171505 0.30137 0.0593821 -0.84118 0.883023 0.521135
-0.00907374 0.0717758 -0.0488361 0.101567 -0.62176 -0.760712
-0.116855 0.205597 -0.0364441 -0.347702 0.377288 -0.994166
-0.0556854 0.169732 -0.0723494 -0.921789 0.346621 -0.53987
-0.172637 0.218851 0.0208782 -0.936432 -0.39466 -0.179675
-0.107507 0.289324 -0.00247303 0.378363 0.254329 -0.875804
-0.171824 0.215041 0.0138842 -1.11751 0.426871 -0.232695
-0.103404 0.282457 0.00462086 0.522771 -0.495037 0.0629972
-0.0522835 0.319542 -0.025921 0.0830493 -0.432376 -0.671138
0.0762236 0.100349 0.0637853 -0.0858895 0.24666 1.03965
-0.0985314 0.188262 0.0884691 -0.254318 0.258396 1.07377
0.000257901 0.215605 0.0865774 0.246784 0.431245 1.03142
-0.122649 0.0723096 0.0879768 -0.663713 0.193164 0.920229
-0.00232208 0.216049 -0.0423635 0.291581 0.581978 -0.925379
-0.147242 0.142383 -0.0110476 -0.730601 -0.550934 -0.434136
-0.0449357 0.145372 -0.0766466 -0.609406 0.0304731 -0.894064
0.0424285 0.22761 0.0720277 0.450432 0.661641 0.87524
-0.100882 0.267182 0.0544879 0.752867 0.720671 0.31034
-0.156361 0.140398 0.0358211 -0.849361 -0.5478 0.250611
-0.0494695 0.247488 -0.00568714 -0.184762 1.20503 -0.260248
-0.124059 0.29283 0.072485 0.159824 0.263043 1.03088
0.0975167 0.0889511 0.0410978 0.586425 -0.690706 0.432381
-0.146003 0.129768 0.0232917 -0.880218 -0.549143 0.0203836
-0.129981 0.328269 -0.04799 0.696001 0.861218 0.135639
-0.150924 0.15928 -0.0217079 -0.838035 -0.256482 -0.617545
-0.0623999 0.0729938 -0.0375069 0.368602 -0.557131 0.608389
-0.084038 0.0812236 -0.047281 -0.695475 0.611085 -0.634981
0.0687412 0.223388 0.0527014 0.795538 0.754764 0.487909
-0.12764 0.223426 0.074885 0.18151 -0.124682 0.959897
-0.0502279 0.174022 -0.0725883 -0.316649 0.558226 -0.956561
-0.0696556 0.073002 -0.0314884 0.388926 -0.75019 0.303262
0.0408608 0.0759735 -0.0159942 0.875399 -0.436589 -0.218047
-0.0280544 0.229915 0.0777811 -0.306485 0.75544 0.881709
0.0679735 0.230698 0.0202991 0.867808 0.829674 0.0589397
0.0199124 0.172825 -0.0640076 0.490395 0.214553 -0.94543
0.0461749 0.221538 0.0738426 0.307013 0.825831 0.8267
-0.0246113 0.182376 0.112143 -0.208837 0.576367 1.01261
0.0926251 0.101967 0.0618269 0.696187 -0.405646 0.676679
-0.115733 0.088576 0.0889898 -0.0220105 0.522467 0.985067
-0.0932519 0.0922059 -0.0211128 -0.356423 0.450854 -0.91672
-0.0315979 0.118781 -0.0711589 -0.0882502 -0.172918 -1.02599
-0.125179 0.297285 -0.0350862 0.855649 0.117955 -0.111362
-0.0336717 0.147604 0.111014 -0.0699927 -0.103141 1.07839
-0.0524661 0.0867301 0.105415 -0.470192 0.247386 0.999672
-0.138282 0.239744 0.105048 0.25317 0.00901662 0.995851
-0.052386 0.167862 -0.0739039 -0.360528 0.201206 -1.02466
0.0267659 0.258433 0.0120466 0.290726 1.216 -0.103631
-0.153428 0.319748 -0.030586 -1.08701 0.60094 0.191556
-0.151119 0.210581 0.0718823 -0.885673 -0.156567 0.642524
-0.053992 0.177071 -0.0670916 -0.767888 0.692034 -0.541609
-0.0615221 0.0729791 0.0754426 0.64331 -0.488545 -0.358034
-0.127925 0.354515 -0.119887 0.122988 0.663704 -1.03719
-0.126938 0.350249 -0.121055 0.123976 0.659439 -1.03836
-0.119762 0.135974 -0.0226158 -0.345027 -0.621875 -0.634923
-0.128185 0.131254 -0.0134086 -0.481578 -0.556931 -0.64706
-0.0796961 0.174352 0.0862395 -0.335097 0.18228 1.05304
-0.178511 0.198768 0.0351787 -1.07948 0.428454 0.403292
-0.0437892 0.103166 -0.058724 -0.595794 -0.116832 -0.86302
-0.0382406 0.216084 -0.042772 0.0204543 0.793323 -0.857235
-0.0339915 0.202734 0.0873943 -0.0817598 0.452302 1.05457
-0.105338 0.324144 0.0092927 -0.643837 1.11928 0.288176
-0.143058 0.0731735 0.0179773 -0.779082 0.477147 0.675457
-0.171974 0.219982 0.0145233 -0.867745 -0.48672 -0.113828
0.00977682 0.146452 0.111799 0.192443 0.00417761 1.08463
-0.0201967 0.189349 0.108754 -0.118459 0.74217 0.93624
-0.0134053 0.252364 -0.015382 -0.325202 0.922897 -0.68856
-0.00710432 0.176595 -0.0720642 0.155679 0.486128 -1.00892
-0.142839 0.0717744 -0.00134528 -0.959461 0.499395 -0.38899
-0.115422 0.252097 0.0810075 0.231024 0.700251 0.905103
-0.117848 0.116805 0.0334282 -0.441904 -0.800378 0.265297
-0.16293 0.29318 0.0793763 -0.760367 0.907466 0.594858
-0.0457322 0.22897 -0.0334823 -0.0984888 0.679873 -0.924495
-0.0283709 0.368234 -0.0479883 0.766459 0.743071 0.429236
-0.0803374 0.122881 0.080428 -0.237946 -0.156301 1.02764
-0.117171 0.254761 0.0802945 0.229275 0.702914 0.90439
-0.0369702 0.235092 0.0717048 -0.24104 0.762662 0.896341
-0.0785673 0.144868 -0.0354328 0.0136281 -0.108154 -0.99849
-0.10128 0.137629 -0.0269634 -0.0906408 -0.573028 -0.730422
0.0162719 0.0733936 -0.02273 -0.471218 -0.765483 0.219428
-0.0041791 0.218574 -0.0419352 0.289724 0.584503 -0.924951
0.120202 0.133471 0.026012 1.08454 0.394131 -0.0200107
-0.0881491 0.298677 0.0110356 0.470595 0.03586 0.797631
0.0695079 0.109871 -0.0171806 0.815789 -0.379161 -0.468748
-0.119102 0.301829 0.0684515 0.315298 0.957669 0.685842
-0.179086 0.225118 0.0393187 -0.818763 -0.505009 0.279586
-0.0476278 0.0943209 0.100462 -0.035342 0.872208 0.728746
0.0215137 0.0692081 0.00643183 0.116739 -0.874853 0.322156
-0.0868793 0.0898482 0.0823266 0.131604 0.754436 0.796881
-0.0428746 0.132831 0.0967161 -0.833255 -0.208654 0.60533
0.111983 0.127369 0.0027893 0.846905 0.227855 -0.667877
-0.0847744 0.0902596 0.0816045 -0.127918 0.357128 1.04437
-0.11215 0.104308 0.0186193 -0.841985 0.248403 0.686883
-0.169512 0.180993 -0.00668653 -1.07234 0.0256412 -0.407638
0.025695 0.13316 -0.0611908 0.354827 -0.0122275 -0.994215
0.079688 0.161734 -0.0215183 0.859317 -0.120754 -0.580427
-0.0580686 0.0991549 -0.0454837 -0.412983 1.00307 -0.28418
0.0231598 0.193254 -0.0478258 0.320119 1.01224 -0.538828
-0.00920927 0.197651 -0.0516004 0.0581684 1.10033 -0.476617
0.0536633 0.0790073 0.05981 0.337332 -0.794515 0.455398
-0.0252634 0.361084 -0.0567993 -0.0142696 1.01341 -0.814655
-0.0639588 0.160988 0.0837235 0.0657665 0.078792 1.07186
-0.119158 0.174667 -0.041363 -0.38028 0.0871761 -1.0027
-0.0682259 0.232136 -0.0291565 -0.177394 1.06249 -0.575597
-0.114455 0.11666 0.00179391 -1.01957 0.371161 0.34237
-0.155172 0.14234 0.0458794 -0.848172 -0.545858 0.260669
0.082845 0.0814337 0.00473406 0.413006 -0.809962 -0.305763
0.0989322 0.142526 0.00952789 0.237013 0.991252 -0.500959
-0.0758946 0.183143 -0.047155 -0.233719 0.296955 -1.02804
-0.11067 0.28183 -0.0038667 0.429353 0.662111 -0.754707
-0.0891951 0.257385 0.00200127 0.115663 1.18045 -0.323563
0.0489335 0.07992 0.0702747 0.771705 -0.512489 0.426158
-0.158866 0.256982 -0.011539 -0.630588 0.428583 -0.876428
-0.158405 0.267137 -0.00977597 -0.630126 0.438738 -0.874664
0.0515566 0.163718 0.0942457 0.739128 0.211017 0.81882
-0.0407783 0.336985 -0.038539 -0.178366 -0.0696823 -0.941695
0.0429486 0.162516 -0.0525016 0.46906 0.263608 -0.951506
-0.0129481 0.0748739 0.0776057 -0.221986 -0.616448 -0.614043
0.0369211 0.192452 -0.0466667 0.402838 0.513287 -0.920263
0.00725463 0.0686457 0.00362531 -0.667816 -0.520873 -0.439937
-0.0782379 0.0690281 0.0175258 -0.229332 -0.75597 0.562089
-0.169896 0.241654 0.0967223 -0.211026 0.0010454 1.06647
-0.164779 0.26082 0.100558 -0.684661 0.471124 0.928504
0.00159573 0.195291 0.104962 0.114644 1.07794 0.561195
-0.00508064 0.0794493 0.0951527 0.164228 0.223015 1.0702
0.0896843 0.157241 -0.000497842 0.995458 0.156616 -0.424259
0.121171 0.128869 0.0224789 1.04413 0.41175 -0.23852
0.0645082 0.196365 0.076816 0.627258 0.53862 0.829262
-0.0535982 0.23449 0.0640047 -0.422617 0.856813 0.754323
-0.168788 0.267415 0.0957133 -0.716423 0.782921 0.754765
-0.032932 0.0904186 0.101945 0.218169 0.641982 0.897386
-0.128134 0.227077 -0.0238357 -0.486162 0.614881 -0.873203
-0.0513877 0.0817615 0.106812 -0.469113 0.242418 1.00107
-0.0546951 0.246446 0.0425098 -0.0400203 1.16461 0.438451
0.0628667 0.104025 -0.0212726 0.966799 -0.110767 -0.391099
0.0870944 0.189122 0.00300039 1.00763 0.460511 -0.277995
-0.113285 0.205688 -0.0377278 -0.59131 0.532174 -0.853142
-0.130264 0.242533 0.0988732 0.684465 0.375842 0.663183
-0.00890057 0.071587 0.0962311 0.167159 -0.677152 0.735287
0.0654281 0.102241 0.0677229 0.721414 -0.331277 0.685578
0.0654409 0.220857 0.0599953 0.758849 0.611728 0.665309
-0.115165 0.175079 0.0906437 -0.176627 0.206088 1.08827
-0.151354 0.342806 -0.0910529 -0.75108 -0.282759 -0.590048
-0.0331384 0.0677826 -0.0476713 -0.0237058 -0.932073 -0.0335074
-0.0213615 0.243111 0.0711198 -0.199742 1.03661 0.652965
-0.150869 0.13981 0.0503552 -0.69957 -0.630675 0.374825
0.0338143 0.0713945 -0.0334821 0.868352 -0.441169 -0.235535
0.0496188 0.224573 0.0702132 0.310457 0.828866 0.823071
-0.0210208 0.12214 0.10968 -0.393759 -0.193129 0.982418
-0.184728 0.233125 0.0190335 -1.17016 0.226957 -0.15095
-0.0832589 0.296881 0.00601343 0.37386 -0.589164 -0.0712325
0.0905336 0.153703 0.00156622 1.02004 0.152033 -0.367248
-0.0295549 0.086964 0.101979 0.287483 0.128189 1.0495
-0.0511666 0.177651 -0.0707129 -0.765062 0.692614 -0.54523
-0.101615 0.309794 0.0218327 0.171251 0.637625 0.926306
0.0367092 0.106025 0.093738 0.334714 -0.449283 0.870157
-0.12673 0.322627 -0.103016 0.753892 -0.134636 -0.227176
-0.0781322 0.156904 -0.0396044 -0.347442 -0.293709 -0.890733
-0.0190085 0.104913 -0.0643067 0.0937601 -0.290028 -0.976066
-0.0521898 0.0890156 0.104116 -0.484574 0.628946 0.826279
-0.0668992 0.215909 -0.038839 -0.119656 0.666812 -0.929851
-0.164994 0.19769 -0.0105942 -0.931643 0.301241 -0.644255
-0.0394704 0.157128 -0.0784664 -0.347613 0.190472 -1.02922
0.113561 0.141621 0.0134124 0.899047 0.706631 -0.239125
0.0211578 0.186795 -0.0576736 0.397022 0.78726 -0.763483
-0.0494289 0.366002 -0.0274282 -0.636413 1.16539 -0.155594
-0.023813 0.191154 -0.0645506 0.000818369 0.89553 -0.77395
-0.03005 0.347648 -0.0502896 -0.365074 -0.177918 -0.8323
-0.0823875 0.0862871 0.0842653 0.136096 0.750875 0.798819
0.0875774 0.154911 -0.0049844 0.992231 0.139479 -0.430853
-0.0606091 0.359437 -0.0175221 -0.642208 1.16251 -0.147188
-0.0277576 0.230335 -0.0329014 -0.0254225 0.784318 -0.865426
-0.12682 0.285574 -0.0134844 0.470276 -0.219149 -0.636967
-0.063558 0.193948 0.0873122 -0.211242 0.37329 1.05995
-0.113794 0.149155 -0.0359972 -0.0383484 -0.311832 -0.920191
0.0151827 0.069928 0.0485164 -0.408552 -0.760377 0.410514
-0.147326 0.243865 0.105458 -0.190519 0.352666 1.09858
-0.0914476 0.252895 0.0483309 0.762301 0.706384 0.304183
-0.105824 0.303482 0.0355833 0.697845 0.889478 0.139147
-0.0755904 0.0981678 -0.0276546 -0.270907 1.02525 -0.347599
0.111763 0.121386 0.0016516 0.846685 0.221872 -0.669014
0.104396 0.141042 0.00853981 0.242477 0.989769 -0.501947
-0.0670051 0.247223 0.0458671 0.328441 0.96505 0.618883
-0.145616 0.208988 0.0750524 -0.46456 0.527826 0.967586
-0.139225 0.252548 -0.0172644 -0.158113 0.289063 -1.01642
-0.150104 0.324083 -0.0657151 -0.88748 -0.250967 -0.420106
-0.0313253 0.0679732 -0.0412775 -0.0208024 -0.931314 -0.00501226
0.0627795 0.180744 0.0842726 0.67277 0.350514 0.858281
-0.0455957 0.240836 0.062521 -0.340508 1.11901 0.43913
0.0030509 0.232492 -0.034276 -0.0527489 0.859457 -0.811322
0.0655808 0.201397 -0.026146 0.656724 0.299111 -0.826772
-0.142853 0.343833 -0.0724383 0.256493 1.24261 0.108462
0.0492807 0.0860739 0.0771469 0.755203 -0.17026 0.737425
-0.0385157 0.232501 0.0729799 -0.242585 0.760071 0.897616
0.0396098 0.0706385 0.0412928 0.00982013 -0.920065 -0.0914427
-0.143664 0.127208 0.030457 -0.877879 -0.551703 0.0275489
-0.170781 0.219889 0.0121326 -0.855479 -0.34533 -0.447992
0.033768 0.118588 0.0990459 0.372491 0.0766065 1.03899
-0.181174 0.233952 0.084271 -0.984836 -0.203941 0.487231
-0.158859 0.153284 0.0578574 -0.780093 -0.360653 0.649412
-0.117079 0.0943264 0.0629218 -0.62867 0.904251 -0.223952
-0.0956584 0.301726 0.0191695 0.683945 0.0867887 0.607405
0.0626665 0.230618 -0.00323292 0.677341 0.914873 -0.395622
-0.137591 0.0777688 -0.00578847 -0.954213 0.505389 -0.393433
-0.143636 0.0714883 0.0167033 -0.803328 -0.673298 0.117203
-0.118095 0.304715 0.0646778 0.316305 0.960555 0.682068
0.013884 0.0769698 0.0593491 -0.444568 -0.681639 0.522313
-0.0268574 0.366389 -0.052121 0.149993 1.07243 -0.737855
-0.0499535 0.24197 0.0564655 -0.344866 1.12015 0.433075
-0.162308 0.14615 0.0230133 -0.913463 -0.506548 -0.0757412
-0.132454 0.347468 -0.0963388 0.309192 1.07389 0.430214
-0.179058 0.275193 0.0623881 -1.15785 0.116142 -0.0667312
-0.0415438 0.112563 0.0931844 -0.862575 0.057393 0.661395
0.0603472 0.0946826 0.0686576 0.766269 -0.161652 0.728935
-0.0667548 0.108374 -0.021477 0.0320657 -0.00163198 -1.01048
0.041183 0.0711769 0.0309184 0.140554 -0.921519 -0.0374929
0.0876053 0.17048 0.0514514 0.971972 0.333967 0.488679
-0.0179964 0.0892892 -0.0551104 0.110246 -0.579606 -0.787321
-0.1112 0.19388 -0.0427544 -0.595699 0.277227 -0.913566
-0.0301309 0.216623 0.0845172 -0.176123 0.397953 1.05704
0.111685 0.141484 0.0112455 0.249765 0.99021 -0.499242
-0.0101481 0.256281 -0.00576713 -0.139431 1.19594 -0.322502
-0.0637427 0.136631 -0.0470574 -0.957665 -0.104793 -0.424705
-0.100878 0.219696 0.0757866 -0.0448534 0.85611 0.845097
-0.13242 0.346178 -0.119745 -1.07592 0.349902 -0.451109
0.00245408 0.260565 0.00374616 -0.118837 1.24923 -0.0847449
0.00511594 0.0696323 -0.0433351 0.138682 -0.83143 -0.455945
0.0528354 0.244825 0.0310384 0.698853 1.00749 0.0627543
0.0907723 0.173831 0.00729931 1.0863 0.21493 -0.0777108
-0.0722931 0.0672992 -0.0557198 -0.0628605 -0.932556 -0.0415558
-0.0124369 0.16599 0.115278 -0.0113195 0.302083 1.10597
0.0276727 0.195325 0.0961275 0.216125 0.373407 1.06193
-0.125857 0.298726 -0.0151135 0.865403 0.35083 0.106087
0.0695132 0.0942415 0.0614696 -0.0271115 -0.357777 0.94823
0.103592 0.0991259 0.000617581 0.6796 -0.591653 -0.436462
0.0800018 0.193568 0.0570523 0.938973 0.457183 0.496
0.0706014 0.0838292 -0.00590285 0.335172 -0.462755 -0.800414
-0.0494936 0.206607 -0.0463849 -0.227826 0.420926 -1.00673
-0.138176 0.126308 0.0380646 -0.632073 -0.697119 0.317409
-0.103536 0.0951471 0.0801623 -0.117737 0.928581 0.632599
0.00678393 0.0767323 -0.0480068 0.145973 -0.0663286 -1.02788
0.0336845 0.108789 -0.0555423 0.233737 -0.245823 -0.968904
-0.0488793 0.315325 -0.0186692 0.201073 -0.626993 -0.241293
-0.0431705 0.0976226 -0.0576323 -0.595175 -0.122375 -0.861928
-0.0663796 0.116742 -0.0239396 -0.199059 -0.269301 -0.936829
-0.0276501 0.242399 -0.0209911 -0.237035 1.0335 -0.595722
-0.175359 0.269778 0.0850336 -1.00035 0.540608 0.581064
-0.171512 0.303476 0.052821 -0.645775 1.16105 0.251933
-0.125379 0.306425 -0.0583436 0.855085 0.12989 -0.145089
-0.149879 0.299623 0.0745266 -0.275419 1.1735 0.544178
0.0367525 0.15005 0.102731 0.560383 -0.00640963 0.940187
-0.0822064 0.297969 -0.000240479 0.374912 -0.588075 -0.0774864
-0.124807 0.245697 0.090248 0.689922 0.379006 0.654557
-0.0114113 0.258875 0.00387854 -0.132703 1.24754 -0.0846126
-0.0538186 0.172364 0.0985374 -0.684568 0.57052 0.764591
-0.133036 0.071243 0.0689152 -0.742703 -0.708349 0.21224
-0.0441674 0.0748813 0.0793258 0.12209 -0.74445 -0.469359
-0.085205 0.246353 -0.021525 0.000345756 0.757041 -0.877024
0.0253554 0.142265 0.10799 0.264975 0.0238584 1.07161
0.0554169 0.224134 0.0685571 0.316255 0.828426 0.821415
0.0222396 0.0696595 0.0448687 0.105127 -0.926007 0.0870404
-0.137674 0.263209 0.096732 0.293136 0.731453 0.868192
-0.178695 0.18995 0.0264723 -1.17739 0.14141 0.0105554
-0.171008 0.223904 0.0845155 -0.500948 -0.709356 0.226523
-0.144025 0.070505 0.00686076 -0.803717 -0.674281 0.10736
-0.0337326 0.215074 -0.0431628 0.0249623 0.792313 -0.857626
0.0186015 0.0755692 -0.0463593 0.107177 -0.228148 -0.994995
0.0235372 0.184793 -0.0581095 0.399401 0.785259 -0.763919
-0.103507 0.28482 -6.74718e-05 0.382362 0.249825 -0.873398
0.0603124 0.112956 0.078944 0.58001 -0.279726 0.837703
-0.118584 0.12708 -0.0117953 -0.289711 -0.695844 -0.553563
-0.143672 0.150857 -0.02287 -0.706006 -0.328969 -0.696329
-0.124374 0.334296 -0.0977673 0.865858 0.247506 0.0113558
-0.00111526 0.2055 -0.0452039 0.130277 0.391332 -1.01896
0.0387007 0.106314 0.0931803 0.336705 -0.448994 0.869599
-0.10213 0.271382 0.0523533 0.733864 0.66417 0.435542
-0.137045 0.149862 0.0758884 -0.521245 -0.275644 0.895239
-0.105322 0.102242 0.0533464 -1.06704 -0.0745056 -0.156093
-0.120297 0.169216 -0.0405576 -0.381419 0.0817248 -1.00189
0.0794821 0.207623 -0.00109187 0.889617 0.681091 -0.346792
-0.161446 0.221327 0.0845017 -0.390682 -0.716204 0.3462
-0.0749971 0.166967 0.0873576 0.212971 0.073359 1.04041
-0.154785 0.29827 0.0757327 -0.280324 1.17215 0.545384
-0.170419 0.215005 0.00984448 -1.07995 0.433073 -0.343988
0.0660703 0.194727 0.076393 0.62882 0.536981 0.828839
-0.150142 0.196571 -0.0255693 -0.609665 0.529396 -0.849017
0.0945909 0.0952871 -0.00469328 0.562537 -0.624945 -0.516838
-0.0200627 0.142477 0.112074 -0.287349 -0.192261 1.01568
-0.0255937 0.0713936 0.0849062 -0.234632 -0.619928 -0.606742
-0.075964 0.155548 -0.0395726 -0.345274 -0.295065 -0.890701
0.112693 0.144859 0.0226193 0.740863 0.914918 0.134025
-0.18236 0.260928 0.0151209 -1.05464 0.385233 -0.457819
-0.124807 0.156856 -0.0355974 -0.27487 -0.0921199 -0.992411
0.0278468 0.250366 0.060225 0.310494 1.00235 0.655731
-0.012546 0.226823 0.082201 -0.149477 0.676229 0.964972
-0.175966 0.18256 0.00978876 -1.10689 0.2186 -0.35364
0.0174616 0.208825 0.0878315 -0.177331 0.877341 0.805565
-0.170059 0.21298 0.00767063 -1.07959 0.431049 -0.346162
-0.110093 0.162712 0.0888329 -0.223789 -0.178443 1.02194
0.00762536 0.262971 0.0343333 0.0839786 1.22677 0.289788
-0.125903 0.310627 -0.0717275 0.754759 -0.114589 -0.280597
-0.0478691 0.122912 -0.0630155 -0.572725 -0.192893 -0.853454
-0.10629 0.0709495 0.090009 -0.0126664 -0.699991 0.719997
0.0744336 0.0931351 0.0614418 -0.0221911 -0.358883 0.948202
0.0272435 0.120512 0.101754 0.402993 0.0542783 1.02611
0.0230388 0.187202 0.102604 0.415738 0.802362 0.786245
-0.0314398 0.241373 -0.0210224 -0.240825 1.03248 -0.595753
0.0351631 0.207808 0.0900693 0.107215 0.911524 0.796889
-0.0484806 0.227444 0.0730929 -0.4175 0.849767 0.763411
-0.112346 0.0878879 0.0329003 -0.54869 0.836324 0.532346
-0.0179289 0.212712 0.0870781 -0.163921 0.394042 1.0596
0.035881 0.21258 0.0852453 0.107933 0.916295 0.792065
0.0135371 0.250662 -0.0147685 0.010853 1.07092 -0.58675
-0.119178 0.198645 0.0857532 -0.217992 0.490566 1.03708
-0.14139 0.178595 0.083842 -0.531546 0.382431 0.981745
-0.0607861 0.229853 0.0668603 -0.155805 0.896081 0.80653
-0.0927538 0.264691 0.0356484 0.718208 0.809815 0.248204
0.0835581 0.119446 -0.00904102 0.046498 0.442953 -0.954541
-0.0243233 0.358518 -0.0578236 -0.635219 0.283348 -0.845958
-0.148595 0.162443 -0.0266004 -0.835706 -0.253319 -0.622437
0.051832 0.164354 -0.0474945 0.669195 0.216077 -0.832471
-0.169502 0.222681 0.00679931 -0.8542 -0.342538 -0.453326
-0.0942514 0.100128 0.0750272 -0.447136 0.821136 0.671366
0.089168 0.144733 0.0488275 0.953112 0.130112 0.552203
0.0681141 0.158093 -0.0355449 0.76935 0.0405762 -0.738722
0.103434 0.0905906 0.0346377 0.874047 -0.530272 0.178455
0.0765887 0.0943618 -0.011155 0.34116 -0.452222 -0.805666
0.0501959 0.0963636 -0.039531 0.508412 -0.427512 -0.757578
-0.1303 0.336649 -0.0713341 0.582861 1.00137 0.151249
-0.112655 0.0999673 -0.00230036 -0.950505 0.534449 -0.332804
-0.0653147 0.107991 0.0751391 0.230642 0.345169 1.00043
-0.184884 0.232667 0.0206191 -1.17674 0.151058 -0.0771611
-0.143679 0.311366 0.0215298 -0.240596 1.30666 0.0230223
0.0362295 0.0715848 0.0805607 0.70078 -0.615071 0.375308
-0.0525338 0.0759599 0.0166589 -0.0554518 -0.9238 -0.00508274
-0.0245879 0.201461 0.0899462 -0.163735 1.0472 0.605088
-0.108043 0.206019 -0.0406684 -0.586068 0.532505 -0.856082
0.0899431 0.127328 -0.00311727 0.0353135 0.76631 -0.770396
-0.138924 0.0830466 0.0042343 -1.02868 0.507521 -0.16358
-0.177308 0.300761 0.0507079 -0.65157 1.15833 0.24982
-0.102435 0.291732 -0.00137549 -0.356076 -0.189356 -0.840554
-0.0505196 0.108266 -0.0554998 -0.602524 -0.111731 -0.859796
0.112514 0.107599 0.0460461 0.754464 -0.401079 0.61976
0.0579065 0.133261 0.0844121 0.643123 0.148382 0.895148
-0.0509069 0.103195 -0.0538012 -0.668229 -0.156445 -0.796431
0.0723549 0.0854229 0.0565077 0.286497 -0.603754 0.748735
-0.11861 0.230663 0.0751179 0.150065 -0.298892 0.87972
-0.165937 0.256352 0.100966 -0.685818 0.466656 0.928912
-0.168619 0.161708 0.00339693 -1.05648 -0.180917 -0.303698
-0.11987 0.158982 0.0863508 -0.222117 -0.188036 1.01862
-0.170925 0.304877 0.0481857 -0.645188 1.16245 0.247297
0.0550883 0.0743833 0.0491561 0.268814 -0.743273 0.58372
-0.0545254 0.0970337 0.0945373 -0.391523 0.935604 0.522594
0.0507165 0.0741076 0.0511038 0.334385 -0.799415 0.446692
-0.144731 0.285887 -0.0167893 -0.407397 -0.625911 -0.332433
-0.0994751 0.2903 -0.00135845 -0.148961 -0.31471 -0.796037
-0.148343 0.300674 -0.0597682 -0.978177 -0.243392 -0.183735
0.0944317 0.085482 0.0136228 0.724313 -0.686061 -0.0756615
-0.118812 0.0832894 0.0449576 -0.671615 0.70174 -0.513547
-0.089339 0.321994 -0.017585 -0.615072 0.313734 -0.868195
-0.0309925 0.324538 -0.0298273 0.223329 -0.573646 -0.388417
-0.129174 0.258767 0.088408 0.621988 0.593712 0.657239
-0.0810502 0.0703299 -0.0153421 0.640333 -0.589667 0.194445
-0.0204064 0.150736 -0.07536 0.12383 0.0646591 -1.06115
-0.0993269 0.286305 0.00545305 0.707618 0.00394059 -0.513306
0.018385 0.158719 -0.0654907 0.488868 0.200447 -0.946913
0.0527215 0.22124 0.0718143 0.31356 0.825532 0.824672
-0.105201 0.104984 0.0504742 -1.06692 -0.0717633 -0.158965
-0.1815 0.286084 0.0450951 -1.16957 0.356152 0.182232
-0.0567515 0.336372 -0.0163128 0.462328 0.556196 0.809662
-0.0404027 0.167787 0.112502 -0.400755 0.0951477 1.04249
-0.0635282 0.350219 -0.00761401 0.103153 0.888857 0.818271
0.0218185 0.232601 0.0739657 0.208002 0.642051 0.967098
-0.032811 0.191686 -0.0613293 -0.28505 1.0979 -0.400676
-0.0543876 0.0926835 0.100058 -0.486772 0.632614 0.82222
-0.16129 0.264106 -0.00880378 -0.633011 0.435707 -0.873692
-0.00627493 0.153327 -0.0732092 0.271578 0.106528 -1.03269
-0.151377 0.270142 0.100971 -0.0620252 0.82377 0.928927
0.0204236 0.148913 0.110033 0.260043 0.0305064 1.07365
-0.151348 0.306381 -0.0304134 -1.0397 0.74537 -0.165004
-0.142958 0.257124 0.103376 0.287853 0.725367 0.874836
0.0467363 0.188317 0.0924423 0.490662 0.457474 0.947126
-0.129201 0.0715125 0.0322631 -0.76022 0.47614 0.694148
-0.0276602 0.257676 0.034422 -0.290201 1.20943 0.193282
-0.0789903 0.301551 -0.0105574 0.0563425 -0.450366 -0.655774
0.0552291 0.17036 0.090743 0.576178 0.267168 0.938823
-0.151262 0.302546 -0.039411 -1.14732 0.305649 -0.128017
-0.0949981 0.102835 -0.017555 -0.491165 -0.208706 -0.881264
-0.101017 0.173753 -0.043824 -0.149385 0.149992 -1.04237
-0.0465753 0.0701641 0.0982164 -0.016156 -0.917622 0.251035
-0.124866 0.322587 -0.0545048 0.701115 0.855536 0.129125
0.0617371 0.160525 -0.0403254 0.592 0.136148 -0.887808
0.0435717 0.143704 0.0972821 0.567202 -0.0127553 0.934738
-0.110956 0.0894336 0.0453407 -0.578252 0.86263 -0.38338
0.0575424 0.126922 0.0847931 0.642759 0.142042 0.895529
-0.140827 0.271596 -0.0164618 -0.238251 0.354412 -1.00825
0.0114023 0.251497 0.0621661 0.0305087 1.08673 0.611736
0.0304814 0.0697872 0.0653386 0.0627035 -0.929441 0.0878191
-0.108719 0.102316 -0.00919268 -0.946569 0.536797 -0.339697
0.0433022 0.119554 0.0946221 0.598501 0.116478 0.926334
-0.0743539 0.109079 -0.0221848 -0.00526308 -0.0193648 -1.01149
-0.172182 0.211406 0.0415961 -1.0634 0.551519 0.341698
0.0795776 0.0990557 -0.0123055 0.246045 0.0683363 -0.997874
-0.0485513 0.104994 -0.0559557 -0.600556 -0.115004 -0.860252
-0.134745 0.36047 -0.112353 0.306901 1.08689 0.414199
-0.109309 0.0938643 0.0270118 -0.658622 0.758117 0.533986
-0.0442595 0.116376 -0.0628009 -0.569116 -0.199429 -0.853239
-0.0778787 0.067643 -0.0457239 -0.0860961 -0.931822 -0.0140701
-0.123538 0.314223 -0.0534044 0.856926 0.137688 -0.14015
0.0133214 0.245022 -0.0228545 0.0106373 1.06528 -0.594836
-0.127265 0.234487 0.0898568 0.771973 -0.0163131 0.448284
0.021617 0.167516 0.108513 0.759605 -0.0120399 0.759
-0.0501228 0.0703978 -0.0572429 0.168859 -0.468024 -0.870968
-0.157636 0.17522 0.0712718 -0.947917 0.112441 0.680792
0.0918653 0.147464 0.0396924 1.05452 0.174512 0.309079
-0.0168779 0.074082 -0.050981 0.122311 -0.0689789 -1.03086
0.0516126 0.0962493 0.0764945 0.573922 0.118847 0.928951
0.0661467 0.138645 0.0783954 0.584745 0.221947 0.929346
-0.00851118 0.260984 0.0385997 -0.173019 1.24068 0.153242
0.108742 0.145589 0.0392945 0.861079 0.750332 0.300591
-0.0491153 0.0717456 -0.0574813 0.181266 -0.0721964 -1.01988
-0.0615614 0.250787 0.0363083 0.0956686 1.20069 0.30642
-0.0350686 0.331822 -0.0242196 0.305999 0.882211 0.737847
-0.171795 0.304604 0.0472866 -0.646058 1.16218 0.246398
0.053023 0.206711 0.0796487 0.336918 0.586494 0.960085
-0.0664336 0.176181 -0.0494852 -0.224258 0.289992 -1.03037
0.00247245 0.257205 -0.00621517 0.22303 0.938093 -0.704603
0.0855597 0.0803779 0.0106515 0.415721 -0.811017 -0.299845
-0.172723 0.223803 0.0798701 -0.502663 -0.709456 0.221877
0.0403758 0.0735757 0.0758502 0.704926 -0.613081 0.370597
-0.113137 0.111246 -0.000892186 -0.986543 0.111892 -0.487885
0.0235834 0.0990994 0.0966858 0.540222 -0.333407 0.835619
0.0223816 0.248565 0.0650933 0.305029 1.00055 0.660599
0.0638587 0.151084 -0.0386914 0.667561 0.0909111 -0.833627
0.0289829 0.100005 0.0934405 0.545622 -0.332502 0.832374
-0.177438 0.221285 0.0317183 -0.941233 -0.392226 -0.168835
-0.178708 0.273979 0.0612368 -1.1575 0.114928 -0.0678825
-0.11298 0.180264 0.0905789 0.238284 0.370299 1.00737
-0.184614 0.257377 0.0569456 -1.08118 0.649141 0.263578
-0.00953443 0.216818 0.0875727 -0.155526 0.398148 1.0601
-0.15683 0.228167 0.0971177 -0.786505 -0.0924513 0.804729
-0.115787 0.0689636 0.0520638 -0.132082 -0.929863 0.0976715
0.0813226 0.204509 0.0454661 0.981298 0.62232 0.16988
0.0823825 0.207673 0.016047 0.99569 0.614911 0.021206
-0.0582495 0.309895 -0.00600546 0.468358 -0.34668 0.533989
0.0635997 0.0977509 -0.0142635 0.16284 -0.178177 -0.970305
0.0391736 0.212652 -0.0348922 0.306605 0.706979 -0.862009
0.112543 0.112337 0.0046644 0.832561 -0.108775 -0.653122
-0.0912566 0.138757 -0.0310936 -0.399789 -0.4023 -0.813439
0.106992 0.134658 0.0518511 0.535594 0.461239 0.894255
-0.00490972 0.0781078 -0.0160923 0.022519 -0.921186 -0.0417887
-0.11518 0.185074 0.0903097 -0.311244 0.381344 1.05106
-0.092731 0.308267 0.0176256 0.644281 0.205283 0.685613
-0.0873481 0.339801 -0.010175 -0.653361 1.15486 0.113568
-0.138099 0.155859 0.0784882 -0.609951 -0.218573 0.876709
0.0348821 0.255939 0.0245485 0.456686 1.1626 0.0172482
-0.169334 0.295943 0.0110467 -1.06217 0.327716 -0.438205
0.0733676 0.175486 -0.0327682 0.807029 0.514185 -0.621855
-0.171621 0.288251 0.0139675 -1.00398 0.167109 -0.526875
-0.104184 0.28159 0.0014408 0.521991 -0.495904 0.0598171
-0.139955 0.309431 -0.0971378 -0.69257 -0.278391 -0.687969
-0.0959993 0.178522 0.0895627 -0.251786 0.248656 1.07486
-0.0956645 0.120395 0.0733978 -0.830545 0.15576 0.750672
-0.0495585 0.319167 -0.00344624 0.632185 0.333724 0.728
0.0351476 0.255833 0.0266646 0.456952 1.16249 0.0193644
-0.117525 0.15018 0.0833455 -0.231222 -0.190975 1.01645
0.0472985 0.082641 0.0779334 0.753221 -0.173693 0.738211
-0.0152541 0.204924 0.0880896 -0.0470632 0.241239 1.08692
-0.0920214 0.0744974 -0.0374389 -1.01584 0.295941 -0.349726
-0.156846 0.219627 0.0824391 -0.386083 -0.717904 0.344137
-0.163279 0.215006 -0.00537508 -0.829559 0.601577 -0.643054
-0.0121272 0.0683157 -0.037412 -0.00160421 -0.930971 -0.0011467
-0.095369 0.0751364 -0.0261935 -1.01969 0.33134 -0.309022
-0.171268 0.223691 0.0825098 -0.501207 -0.709569 0.224517
0.0489793 0.107822 0.0862449 0.726176 -0.20193 0.753671
-0.12553 0.276031 0.074087 0.72427 0.376983 0.591435
0.0113857 0.109831 -0.0608784 0.295092 -0.177306 -0.97579
0.0181351 0.165607 0.110587 0.343625 0.227606 1.0541
-0.00603035 0.0770671 0.045094 0.00222841 -0.921651 0.0950377
-0.121078 0.268897 0.0741222 0.410642 0.74768 0.772721
-0.142166 0.128559 0.0376471 -0.636063 -0.694868 0.316992
-0.0204679 0.111493 -0.0672213 0.10832 -0.226471 -0.999527
0.0784744 0.191803 -0.017359 0.970122 0.478542 -0.36771
0.0192922 0.114773 0.104427 0.356085 -0.0130897 1.03728
-0.129207 0.340235 -0.0861981 0.696774 0.873184 0.0974313
-0.0401367 0.337959 -0.0263833 0.300931 0.888348 0.735683
-0.188774 0.255331 0.0427729 -1.08534 0.647095 0.249405
-0.0100315 0.0706121 -0.0478512 0.100609 -0.622924 -0.759727
0.0546582 0.162667 0.0919718 0.575607 0.259475 0.940052
-0.154218 0.305162 -0.00661319 -1.1498 0.305691 -0.100484
-0.120918 0.290392 -0.00705289 0.564792 0.448328 -0.717587
-0.17561 0.175601 0.035644 -1.0553 -0.293499 0.113661
0.0427533 0.160715 0.100378 0.569673 0.106588 0.948568
-0.0672495 0.0710773 -0.0361404 0.363752 -0.559047 0.609755
-0.000160512 0.072615 -0.0305934 -0.112464 -0.555258 0.739578
0.0933487 0.106298 0.0626031 0.594368 -0.029411 0.917332
-0.00760203 0.0699067 0.0887591 0.0229967 -0.917913 0.241324
-0.0805059 0.0675908 -0.0347299 0.0971356 -0.915834 0.00157883
-0.0251069 0.36578 -0.0514975 0.769723 0.740618 0.425727
-0.0606451 0.185878 0.0892063 -0.146202 0.157421 1.08513
0.0278973 0.123878 0.101897 0.519208 -0.203831 0.908879
0.0988212 0.0963466 0.0511041 0.702383 -0.411266 0.665956
-0.0141087 0.137743 0.111205 -0.183051 -0.315375 0.986501
-0.0234676 0.12805 0.108842 -0.350523 0.127748 1.05385
-0.0674892 0.210565 0.0793651 -0.272451 0.713157 0.919241
-0.0213488 0.163985 -0.0764385 0.129955 0.103979 -1.0631
0.0620205 0.107698 0.0750532 0.581718 -0.284983 0.833812
-0.109345 0.0813165 0.0918368 -0.0156224 0.515207 0.987914
-0.103981 0.283033 -5.12326e-06 0.702964 0.000668631 -0.518765
-0.105618 0.281716 -0.00111751 0.380251 0.246721 -0.874448
-0.14783 0.200928 0.0772806 -0.803908 0.390798 0.807699
0.103421 0.140467 0.00784205 0.138692 0.798027 -0.744734
-0.0874226 0.0798038 0.0872544 0.258647 0.128522 1.0242
-0.169955 0.157972 0.0151616 -1.08408 -0.242383 -0.0487342
0.0828995 0.103747 -0.0118906 0.249367 0.0730272 -0.997459
-0.154399 0.304312 -0.00470551 -1.14998 0.304841 -0.0985759
-0.141715 0.298184 -0.0732883 -0.333233 -0.674418 -0.205068
-0.0259927 0.233522 0.0761378 -0.304423 0.759047 0.880066
-0.000725499 0.106956 -0.0624982 0.179714 -0.152667 -1.0112
0.0681001 0.0736727 0.0115799 0.347756 -0.826147 -0.32326
0.00563597 0.26169 0.0105518 -0.131776 1.24611 -0.0991985
-0.0799345 0.249076 0.0479121 -0.257307 0.965575 0.722574
-0.177489 0.199725 0.0370837 -1.07845 0.429411 0.405197
0.0169987 0.0773818 0.0637748 -0.943184 -0.201846 0.0728326
-0.0141252 0.192355 0.107466 -0.112387 0.745177 0.934952
-0.0153297 0.223562 0.0834291 -0.152261 0.672968 0.9662
-0.14224 0.236654 -0.0167812 -0.389555 0.129961 -0.979824
-0.118545 0.129098 -0.014553 -0.34381 -0.628751 -0.62686
-0.140626 0.342673 -0.0715885 0.25872 1.24145 0.109312
-0.0762303 0.0909834 -0.0467536 -0.690058 0.613154 -0.638829
-0.0442781 0.148081 0.105176 -0.427296 -0.196487 0.962247
-0.0145848 0.165943 0.115287 -0.0134674 0.302036 1.10598
-0.0471047 0.131971 0.089565 -0.837485 -0.209514 0.598179
-0.139362 0.19806 0.08156 -0.427151 0.56606 0.965728
-0.0777838 0.243225 0.0546909 -0.255157 0.959724 0.729353
-0.0587754 0.126034 -0.0520406 -0.952698 -0.11539 -0.429688
-0.122918 0.344104 -0.122027 0.127995 0.653293 -1.03933
0.022679 0.0705177 0.010696 0.138423 -0.921855 -0.0317357
-0.0754323 0.123157 0.0813254 -0.233041 -0.156025 1.02854
-0.0482216 0.156483 -0.0756527 -0.356364 0.189827 -1.02641
-0.164873 0.149583 0.0240429 -0.994749 -0.408199 0.0104343
-0.113201 0.271901 -0.00877795 0.359654 0.600083 -0.826522
-0.0848397 0.0917818 -0.0307464 -0.756682 0.736817 -0.394831
0.049086 0.0880529 -0.0240652 0.746383 -0.542834 -0.3643
-0.0249514 0.22295 -0.0379585 -0.154405 0.825802 -0.825239
0.0781218 0.0914296 0.0607039 0.292264 -0.597747 0.752931
0.044243 0.0855153 -0.0277401 0.575201 -0.676204 -0.399045
-0.0114736 0.157134 -0.0745074 0.13983 0.097127 -1.06117
0.0666272 0.0890989 -0.0108515 0.331198 -0.457485 -0.805363
-0.00999933 0.102439 0.104977 -0.129891 -0.583649 0.822548
-0.0257697 0.0842282 -0.0537598 0.204611 -0.0597137 -1.01616
0.0293232 0.145976 -0.0602187 0.405461 0.180531 -0.986138
-0.178835 0.229258 0.0599241 -0.714593 -0.568465 -0.216846
-0.134428 0.309754 0.00578765 0.0535083 1.23064 0.347323
-0.0284904 0.333072 -0.0404992 -0.251346 -0.319541 -0.764676
-0.0837253 0.11716 0.0801715 0.0596885 -0.00861034 1.06181
-0.0529827 0.364031 -0.0234465 -0.639966 1.16342 -0.151612
0.120436 0.132973 0.0280776 1.08477 0.393632 -0.0179451
-0.141 0.317228 -0.0082896 -0.402935 1.17595 0.432152
-0.113929 0.226908 -0.0294439 -0.409202 0.71989 -0.847846
-0.0666107 0.223244 -0.0351439 -0.119367 0.674147 -0.926156
0.0178713 0.130377 0.108819 0.261875 0.322728 1.05933
0.000185807 0.0839971 0.0935686 0.169494 0.227563 1.06862
-0.0460291 0.161486 0.109783 -0.429047 -0.183081 0.966854
-0.117569 0.315565 0.00884687 -0.380364 1.06318 -0.601085
-0.12899 0.292291 -0.0354805 0.460818 -0.458161 -0.333721
-0.140705 0.335527 -0.101846 -0.921522 0.0955629 -0.678684
-0.130951 0.28797 0.0806624 0.718849 0.388921 0.59801
-0.0506045 0.250152 0.0371277 -0.412036 1.08705 0.448183
-0.092567 0.125288 0.0765033 -0.827447 0.160653 0.753777
0.0513319 0.23996 0.0536479 0.561741 0.991937 0.470797
-0.132671 0.237654 0.102041 0.25878 0.0069262 0.992844
-0.0273281 0.331349 -0.0273418 0.313739 0.881738 0.734725
-0.109185 0.252633 -0.0119547 0.26465 0.427247 -0.922865
-0.0884682 0.135998 0.0822369 -0.636152 -0.278162 0.809227
0.0103678 0.109467 -0.0610756 0.190807 -0.150155 -1.00978
0.0959948 0.121454 -0.00843967 0.0413652 0.760437 -0.775719
-0.079116 0.0677028 -0.038497 0.0985255 -0.915722 -0.0021883
0.00144341 0.195367 0.104852 0.114492 1.07802 0.561084
-0.0874969 0.25912 0.0183253 0.141455 1.23024 -0.0487471
-0.149915 0.315948 -0.0108371 -0.889398 0.925435 0.27498
0.00834285 0.189326 -0.0623442 0.384207 0.789792 -0.768154
-0.121776 0.281347 0.070841 0.554267 0.145322 0.79504
-0.00533347 0.209839 0.0882269 -0.0371425 0.246153 1.08706
-0.107398 0.264504 0.0661689 0.497845 0.698849 0.733271
-0.160251 0.307821 0.0509713 -0.448306 1.23797 0.278652
0.0188273 0.0710798 0.063338 -0.941355 -0.208148 0.0723957
0.0215084 0.0984606 0.0975496 0.433526 -0.511767 0.774206
0.0488192 0.136805 0.0906935 0.708077 -0.104615 0.8028
-0.00173294 0.15928 0.11414 0.0797962 0.0969025 1.10886
-0.0577081 0.137399 -0.0625158 -0.667353 -0.194111 -0.78254
-0.145797 0.30489 0.0658183 -0.271336 1.17877 0.53547
0.0921371 0.107234 0.0634619 0.593157 -0.0284751 0.918191
0.00480508 0.0721278 -0.0470219 0.115446 -0.621408 -0.758897
-0.122499 0.311827 0.0371569 -0.0151444 1.30598 0.0491132
-0.0189363 0.168276 -0.0758889 0.0644246 0.324812 -1.06004
-0.0785951 0.324233 0.00317856 0.713037 0.157711 0.591047
0.0241215 0.187004 0.10216 0.416821 0.802165 0.785801
0.0787259 0.157707 0.0670411 0.929579 0.182026 0.591881
-0.138178 0.286812 -0.0249136 -0.400845 -0.624986 -0.340557
-0.073474 0.0697295 0.0838712 -0.0885963 -0.928955 0.132872
0.0133915 0.0748956 -0.0233255 -0.474098 -0.763981 0.218832
-0.00575182 0.0967867 -0.0593364 0.0927459 -0.287654 -0.977216
0.0460644 0.149433 0.0967939 0.569694 -0.00702613 0.93425
-0.114089 0.10781 0.0111112 -1.11386 0.0890778 0.0216003
-0.0322695 0.25445 0.00303701 -0.270137 1.1424 -0.390626
-0.139094 0.360123 -0.108227 0.302552 1.08655 0.418326
-0.0113498 0.250881 0.0625581 -0.028663 1.04825 0.665806
0.0634332 0.0914717 0.0614428 0.623926 -0.388375 0.736421
