-0.868327 0.0910852 1 -0.868327 0.0910852 2
0.163791 -0.00446472 1 0.163791 -0.00446472 2
-1 0.844755 0.199735 -2 0.844755 0.199735
0.513626 1 0.542094 0.513626 2 0.542094
0.0526696 0.0580112 -1 0.0526696 0.0580112 -2
1 -0.453211 0.85717 2 -0.453211 0.85717
0.279782 -0.424369 1 0.279782 -0.424369 2
-1 0.347852 -0.349546 -2 0.347852 -0.349546
-1 0.151762 -0.659972 -2 0.151762 -0.659972
0.240181 -0.728697 -1 0.240181 -0.728697 -2
-0.281268 -0.733979 -1 -0.281268 -0.733979 -2
-0.189681 0.150544 1 -0.189681 0.150544 2
-0.302843 1 -0.0530285 -0.302843 2 -0.0530285
0.955604 0.790153 1 0.955604 0.790153 2
-1 -0.279828 -0.924566 -2 -0.279828 -0.924566
-1 -0.781557 -0.487493 -2 -0.781557 -0.487493
-0.617699 0.437315 -1 -0.617699 0.437315 -2
1 0.270571 0.82464 2 0.270571 0.82464
0.84501 -1 -0.0791172 0.84501 -2 -0.0791172
1 0.305823 -0.726581 2 0.305823 -0.726581
0.0662214 0.832268 1 0.0662214 0.832268 2
-0.176562 1 -0.530486 -0.176562 2 -0.530486
1 -0.0181327 0.826561 2 -0.0181327 0.826561
-0.679431 -0.101242 -1 -0.679431 -0.101242 -2
0.401592 0.947676 1 0.401592 0.947676 2
0.599363 1 0.50534 0.599363 2 0.50534
-0.563916 0.832068 1 -0.563916 0.832068 2
-0.84587 0.833065 -1 -0.84587 0.833065 -2
-0.455198 0.614502 -1 -0.455198 0.614502 -2
-0.636105 -0.974987 -1 -0.636105 -0.974987 -2
-0.136741 0.302169 -1 -0.136741 0.302169 -2
-0.0211668 0.197583 -1 -0.0211668 0.197583 -2
0.652959 -1 -0.0635756 0.652959 -2 -0.0635756
0.0479864 1 -0.507861 0.0479864 2 -0.507861
0.90697 0.554806 -1 0.90697 0.554806 -2
0.199487 -0.0247839 1 0.199487 -0.0247839 2
0.903667 -1 -0.166706 0.903667 -2 -0.166706
-0.34613 -1 0.646299 -0.34613 -2 0.646299
-1 -0.274501 -0.0789668 -2 -0.274501 -0.0789668
-1 -0.327831 0.739926 -2 -0.327831 0.739926
1 0.236548 0.56963 2 0.236548 0.56963
-0.53246 1 -0.943463 -0.53246 2 -0.943463
-0.880246 -0.337927 -1 -0.880246 -0.337927 -2
1 -0.781349 0.234711 2 -0.781349 0.234711
0.763222 -0.759717 1 0.763222 -0.759717 2
0.894342 -1 -0.906855 0.894342 -2 -0.906855
-0.28224 0.563703 -1 -0.28224 0.563703 -2
0.768824 0.825783 -1 0.768824 0.825783 -2
1 -0.10954 -0.141842 2 -0.10954 -0.141842
0.323899 -1 -0.900918 0.323899 -2 -0.900918
-0.284967 -0.721928 1 -0.284967 -0.721928 2
1 -0.469995 0.677127 2 -0.469995 0.677127
0.549806 1 -0.594349 0.549806 2 -0.594349
0.606331 1 -0.59934 0.606331 2 -0.59934
0.462583 1 -0.636513 0.462583 2 -0.636513
-0.591622 1 -0.605142 -0.591622 2 -0.605142
-0.268668 0.605469 -1 -0.268668 0.605469 -2
0.0513902 0.241852 -1 0.0513902 0.241852 -2
-0.392977 -1 0.864306 -0.392977 -2 0.864306
0.481444 1 0.36994 0.481444 2 0.36994
-0.40641 0.462791 -1 -0.40641 0.462791 -2
-0.925088 1 -0.315322 -0.925088 2 -0.315322
-1 -0.614088 -0.197859 -2 -0.614088 -0.197859
-0.814012 -0.920603 1 -0.814012 -0.920603 2
1 0.485382 0.712174 2 0.485382 0.712174
-0.188733 1 0.973394 -0.188733 2 0.973394
1 -0.660595 -0.0272112 2 -0.660595 -0.0272112
1 -0.119082 0.80729 2 -0.119082 0.80729
0.670174 -1 -0.708854 0.670174 -2 -0.708854
-0.109667 -0.830645 -1 -0.109667 -0.830645 -2
-1 -0.236177 -0.581131 -2 -0.236177 -0.581131
1 -0.273175 -0.518229 2 -0.273175 -0.518229
1 0.527149 -0.678325 2 0.527149 -0.678325
0.271936 0.574802 -1 0.271936 0.574802 -2
-1 0.512765 0.798638 -2 0.512765 0.798638
-1 0.133738 0.409039 -2 0.133738 0.409039
0.787615 -0.76991 1 0.787615 -0.76991 2
1 -0.333149 -0.569468 2 -0.333149 -0.569468
-1 0.776829 -0.168392 -2 0.776829 -0.168392
-1 0.488943 0.337001 -2 0.488943 0.337001
-0.91493 -0.643855 -1 -0.91493 -0.643855 -2
-1 0.821906 0.231097 -2 0.821906 0.231097
0.164967 1 -0.601545 0.164967 2 -0.601545
-1 0.32099 -0.8798 -2 0.32099 -0.8798
0.342504 0.760139 1 0.342504 0.760139 2
1 -0.992795 0.215327 2 -0.992795 0.215327
-0.448438 0.316204 1 -0.448438 0.316204 2
-0.855494 1 0.886134 -0.855494 2 0.886134
0.544641 0.223315 -1 0.544641 0.223315 -2
-0.641645 1 -0.157047 -0.641645 2 -0.157047
0.117966 -0.226086 1 0.117966 -0.226086 2
-0.174039 0.214352 -1 -0.174039 0.214352 -2
-0.333618 1 -0.10027 -0.333618 2 -0.10027
0.55999 -1 -0.694439 0.55999 -2 -0.694439
1 -0.153906 0.602258 2 -0.153906 0.602258
-0.604818 1 -0.816372 -0.604818 2 -0.816372
1 0.00110248 -0.469475 2 0.00110248 -0.469475
-1 0.0822871 -0.998909 -2 0.0822871 -0.998909
-0.0221547 0.0143371 -1 -0.0221547 0.0143371 -2
0.984102 1 0.192262 0.984102 2 0.192262
1 0.578833 0.0280472 2 0.578833 0.0280472
-0.445469 1 0.208386 -0.445469 2 0.208386
0.981233 0.421793 -1 0.981233 0.421793 -2
-1 0.659863 -0.314696 -2 0.659863 -0.314696
-1 0.877432 -0.997039 -2 0.877432 -0.997039
1 -0.334296 0.790881 2 -0.334296 0.790881
1 0.319279 -0.555612 2 0.319279 -0.555612
-0.672141 -0.400742 -1 -0.672141 -0.400742 -2
0.109507 1 0.136549 0.109507 2 0.136549
0.0507498 0.00227376 1 0.0507498 0.00227376 2
0.713063 -0.445123 -1 0.713063 -0.445123 -2
-0.949728 -0.138978 -1 -0.949728 -0.138978 -2
1 -0.641345 0.412723 2 -0.641345 0.412723
-1 0.415729 0.844801 -2 0.415729 0.844801
-1 0.736397 -0.618335 -2 0.736397 -0.618335
-0.677576 0.249341 1 -0.677576 0.249341 2
-1 0.212673 -0.389158 -2 0.212673 -0.389158
1 0.701744 -0.0822566 2 0.701744 -0.0822566
-0.505641 0.392724 1 -0.505641 0.392724 2
0.233398 1 -0.71368 0.233398 2 -0.71368
0.185366 -1 0.359601 0.185366 -2 0.359601
-0.987693 -1 0.0777645 -0.987693 -2 0.0777645
0.926297 -1 0.196197 0.926297 -2 0.196197
1 -0.66925 0.845878 2 -0.66925 0.845878
-0.807027 -0.00653302 -1 -0.807027 -0.00653302 -2
1 0.831122 0.506116 2 0.831122 0.506116
-0.35442 -1 -0.240593 -0.35442 -2 -0.240593
-1 -0.401339 -0.688308 -2 -0.401339 -0.688308
-1 0.944693 0.539427 -2 0.944693 0.539427
-0.256631 1 0.0187258 -0.256631 2 0.0187258
0.162336 -0.378097 -1 0.162336 -0.378097 -2
-0.956143 0.354953 -1 -0.956143 0.354953 -2
-0.922512 -0.156944 -1 -0.922512 -0.156944 -2
0.784843 0.633419 1 0.784843 0.633419 2
-1 0.294751 0.126748 -2 0.294751 0.126748
-0.37181 -0.981064 -1 -0.37181 -0.981064 -2
-1 0.911345 -0.976814 -2 0.911345 -0.976814
0.972156 -1 -0.998284 0.972156 -2 -0.998284
0.740861 -0.6156 1 0.740861 -0.6156 2
-0.809653 -0.685496 -1 -0.809653 -0.685496 -2
-0.250844 -1 0.167088 -0.250844 -2 0.167088
1 0.679505 0.112131 2 0.679505 0.112131
1 -0.910804 0.161773 2 -0.910804 0.161773
1 0.174564 -0.927352 2 0.174564 -0.927352
0.590349 -0.410146 1 0.590349 -0.410146 2
-0.625053 -1 0.890024 -0.625053 -2 0.890024
-0.717587 0.0193204 1 -0.717587 0.0193204 2
-0.41028 -0.430158 -1 -0.41028 -0.430158 -2
0.481486 -0.34096 -1 0.481486 -0.34096 -2
-1 -0.811737 -0.563292 -2 -0.811737 -0.563292
0.132508 0.313014 -1 0.132508 0.313014 -2
-0.0410992 0.468881 -1 -0.0410992 0.468881 -2
-0.891118 0.398626 -1 -0.891118 0.398626 -2
-0.695599 1 -0.259977 -0.695599 2 -0.259977
-0.88546 0.295168 1 -0.88546 0.295168 2
-0.0478102 -0.593985 1 -0.0478102 -0.593985 2
-0.774409 0.689447 -1 -0.774409 0.689447 -2
1 -0.712647 -0.502129 2 -0.712647 -0.502129
0.717517 1 0.69949 0.717517 2 0.69949
1 0.0877384 -0.292912 2 0.0877384 -0.292912
-0.30621 1 0.785858 -0.30621 2 0.785858
0.208383 0.240007 1 0.208383 0.240007 2
-0.563075 0.0597595 -1 -0.563075 0.0597595 -2
0.50149 -0.544863 -1 0.50149 -0.544863 -2
1 0.075096 0.629138 2 0.075096 0.629138
0.844159 1 0.224594 0.844159 2 0.224594
-0.953347 0.834724 -1 -0.953347 0.834724 -2
1 0.695234 0.499969 2 0.695234 0.499969
-0.435491 1 0.270857 -0.435491 2 0.270857
-1 -0.504973 -0.911109 -2 -0.504973 -0.911109
-0.525884 -1 0.895373 -0.525884 -2 0.895373
0.602173 -1 0.322757 0.602173 -2 0.322757
0.175488 -1 0.210021 0.175488 -2 0.210021
-0.71465 -0.873187 -1 -0.71465 -0.873187 -2
-0.989064 1 0.0033324 -0.989064 2 0.0033324
0.386238 1 0.72093 0.386238 2 0.72093
1 -0.1891 0.471481 2 -0.1891 0.471481
-0.827981 0.718478 -1 -0.827981 0.718478 -2
0.395501 0.927142 -1 0.395501 0.927142 -2
-0.969192 -0.0322447 -1 -0.969192 -0.0322447 -2
-0.156311 -0.268938 1 -0.156311 -0.268938 2
0.299864 0.998411 -1 0.299864 0.998411 -2
-0.777484 -1 0.796738 -0.777484 -2 0.796738
0.417194 -0.811228 1 0.417194 -0.811228 2
-0.196185 -0.718817 -1 -0.196185 -0.718817 -2
-0.812702 0.00786455 -1 -0.812702 0.00786455 -2
-0.881146 0.198303 1 -0.881146 0.198303 2
1 0.808728 0.979782 2 0.808728 0.979782
1 0.68339 -0.582622 2 0.68339 -0.582622
-0.499826 1 0.619735 -0.499826 2 0.619735
-0.360328 -1 0.546817 -0.360328 -2 0.546817
0.00291077 -1 -0.0757933 0.00291077 -2 -0.0757933
0.102134 -1 0.545481 0.102134 -2 0.545481
-0.259277 -0.326801 -1 -0.259277 -0.326801 -2
0.921597 -1 -0.794929 0.921597 -2 -0.794929
0.670195 -0.363127 1 0.670195 -0.363127 2
-1 -0.83294 -0.396706 -2 -0.83294 -0.396706
0.576097 -1 0.0380662 0.576097 -2 0.0380662
1 0.156215 0.613188 2 0.156215 0.613188
-0.605858 0.610209 -1 -0.605858 0.610209 -2
-0.0194863 -1 -0.526156 -0.0194863 -2 -0.526156
0.442207 -0.169761 -1 0.442207 -0.169761 -2
0.298255 0.499363 -1 0.298255 0.499363 -2
-1 0.344644 0.975806 -2 0.344644 0.975806
0.325498 -1 0.429088 0.325498 -2 0.429088
0.962934 -1 -0.00380287 0.962934 -2 -0.00380287
-0.960485 -0.745 -1 -0.960485 -0.745 -2
0.639428 0.513006 1 0.639428 0.513006 2
1 0.810571 -0.930617 2 0.810571 -0.930617
0.878976 -0.952613 -1 0.878976 -0.952613 -2
-0.783805 -1 0.431534 -0.783805 -2 0.431534
0.916784 1 -0.387132 0.916784 2 -0.387132
1 -0.350345 0.361894 2 -0.350345 0.361894
1 0.643167 -0.651113 2 0.643167 -0.651113
0.291851 0.614845 1 0.291851 0.614845 2
-1 0.4997 0.930599 -2 0.4997 0.930599
1 -0.727705 0.290518 2 -0.727705 0.290518
0.983239 1 0.709379 0.983239 2 0.709379
1 0.633571 0.0674987 2 0.633571 0.0674987
-0.795652 -0.597203 -1 -0.795652 -0.597203 -2
0.629051 0.0922712 1 0.629051 0.0922712 2
1 0.48908 -0.545998 2 0.48908 -0.545998
0.655257 1 -0.902011 0.655257 2 -0.902011
-0.392833 -1 0.415922 -0.392833 -2 0.415922
0.656051 -1 -0.0940336 0.656051 -2 -0.0940336
-1 0.781326 0.261642 -2 0.781326 0.261642
-0.987255 -0.853871 1 -0.987255 -0.853871 2
-1 -0.0810982 -0.983298 -2 -0.0810982 -0.983298
0.891059 1 0.944663 0.891059 2 0.944663
-0.377641 -0.394961 1 -0.377641 -0.394961 2
0.0371734 0.108167 1 0.0371734 0.108167 2
0.971765 0.421978 1 0.971765 0.421978 2
1 -0.0863573 -0.493024 2 -0.0863573 -0.493024
1 0.186163 0.0282896 2 0.186163 0.0282896
-0.40088 0.47792 1 -0.40088 0.47792 2
0.69319 0.796175 1 0.69319 0.796175 2
-1 -0.63543 0.0245338 -2 -0.63543 0.0245338
-0.419105 0.639968 -1 -0.419105 0.639968 -2
0.720871 -1 -0.596296 0.720871 -2 -0.596296
0.657142 -0.591481 -1 0.657142 -0.591481 -2
-1 0.678155 0.248552 -2 0.678155 0.248552
-1 -0.658007 -0.872118 -2 -0.658007 -0.872118
1 0.648175 -0.481659 2 0.648175 -0.481659
-0.203055 -1 0.870245 -0.203055 -2 0.870245
-1 0.416518 -0.41298 -2 0.416518 -0.41298
1 -0.840747 -0.140249 2 -0.840747 -0.140249
0.64848 -0.997471 -1 0.64848 -0.997471 -2
0.682692 0.751528 -1 0.682692 0.751528 -2
1 0.416826 -0.983142 2 0.416826 -0.983142
-0.851618 -1 -0.426914 -0.851618 -2 -0.426914
-1 -0.3687 0.19554 -2 -0.3687 0.19554
-0.227476 1 0.262778 -0.227476 2 0.262778
-0.592719 -0.304838 1 -0.592719 -0.304838 2
0.335477 1 -0.360965 0.335477 2 -0.360965
1 0.521675 -0.687919 2 0.521675 -0.687919
1 -0.482255 -0.742766 2 -0.482255 -0.742766
-0.845349 1 0.641132 -0.845349 2 0.641132
0.820592 -0.485358 1 0.820592 -0.485358 2
0.472233 0.288585 1 0.472233 0.288585 2
-1 -0.250278 -0.151074 -2 -0.250278 -0.151074
-0.14674 1 0.44591 -0.14674 2 0.44591
1 0.504361 0.808443 2 0.504361 0.808443
0.202475 0.838958 -1 0.202475 0.838958 -2
1 0.128185 -0.461216 2 0.128185 -0.461216
-0.885556 -0.632192 -1 -0.885556 -0.632192 -2
-0.130635 -0.705384 1 -0.130635 -0.705384 2
0.806166 1 0.759967 0.806166 2 0.759967
0.0395175 1 0.970195 0.0395175 2 0.970195
-1 -0.566989 0.0188263 -2 -0.566989 0.0188263
-0.635515 1 -0.896225 -0.635515 2 -0.896225
0.397605 -0.539405 -1 0.397605 -0.539405 -2
0.724514 -1 0.62707 0.724514 -2 0.62707
-0.461841 -1 0.166506 -0.461841 -2 0.166506
-0.0633016 -0.0895535 -1 -0.0633016 -0.0895535 -2
0.858581 0.0236552 1 0.858581 0.0236552 2
0.370912 0.085972 -1 0.370912 0.085972 -2
0.760567 0.617494 1 0.760567 0.617494 2
0.710871 0.392298 -1 0.710871 0.392298 -2
0.103937 -0.863612 -1 0.103937 -0.863612 -2
-1 0.881967 0.777725 -2 0.881967 0.777725
0.514831 -1 0.514993 0.514831 -2 0.514993
0.383807 0.0254175 1 0.383807 0.0254175 2
1 0.933153 -0.568373 2 0.933153 -0.568373
-1 -0.0844469 -0.700762 -2 -0.0844469 -0.700762
0.696751 -0.299195 -1 0.696751 -0.299195 -2
-0.423541 0.744799 -1 -0.423541 0.744799 -2
-0.683635 -0.24891 -1 -0.683635 -0.24891 -2
-1 -0.117285 -0.788567 -2 -0.117285 -0.788567
1 -0.791589 0.780436 2 -0.791589 0.780436
-1 0.666524 -0.273804 -2 0.666524 -0.273804
0.54198 -1 0.960282 0.54198 -2 0.960282
-0.759459 -0.254373 1 -0.759459 -0.254373 2
-0.675417 1 0.932789 -0.675417 2 0.932789
1 0.853989 0.847087 2 0.853989 0.847087
0.92412 0.307387 -1 0.92412 0.307387 -2
1 -0.501049 -0.267835 2 -0.501049 -0.267835
-1 0.581236 -0.835361 -2 0.581236 -0.835361
-0.890046 -0.992723 -1 -0.890046 -0.992723 -2
-0.464178 -0.568754 -1 -0.464178 -0.568754 -2
-0.892789 0.0152372 -1 -0.892789 0.0152372 -2
0.775293 -0.344613 -1 0.775293 -0.344613 -2
1 -0.345175 0.93475 2 -0.345175 0.93475
-0.511292 0.128182 -1 -0.511292 0.128182 -2
-1 0.188648 -0.608579 -2 0.188648 -0.608579
-0.220248 1 0.492907 -0.220248 2 0.492907
-0.032115 -1 -0.788432 -0.032115 -2 -0.788432
-0.0830817 -0.00796792 1 -0.0830817 -0.00796792 2
-0.362191 -0.701111 1 -0.362191 -0.701111 2
0.297178 -1 -0.0308317 0.297178 -2 -0.0308317
1 0.171125 -0.725585 2 0.171125 -0.725585
1 -0.271698 -0.181456 2 -0.271698 -0.181456
-1 0.209085 -0.0833982 -2 0.209085 -0.0833982
1 -0.644344 -0.626486 2 -0.644344 -0.626486
1 -0.580916 0.829213 2 -0.580916 0.829213
-0.712395 -1 0.72712 -0.712395 -2 0.72712
1 -0.232735 -0.808834 2 -0.232735 -0.808834
-0.630142 1 0.0239392 -0.630142 2 0.0239392
-1 -0.571399 -0.405496 -2 -0.571399 -0.405496
-1 -0.813232 -0.0547247 -2 -0.813232 -0.0547247
0.695106 1 0.975946 0.695106 2 0.975946
-0.12527 -1 -0.536239 -0.12527 -2 -0.536239
1 0.457541 -0.65424 2 0.457541 -0.65424
0.146863 1 -0.325675 0.146863 2 -0.325675
-1 0.566232 -0.655656 -2 0.566232 -0.655656
-0.706065 -0.0692352 -1 -0.706065 -0.0692352 -2
-0.958997 0.401835 -1 -0.958997 0.401835 -2
-0.754074 1 -0.472736 -0.754074 2 -0.472736
0.914314 -0.879247 -1 0.914314 -0.879247 -2
1 -0.77339 -0.274125 2 -0.77339 -0.274125
-1 -0.530298 0.517639 -2 -0.530298 0.517639
-0.298755 1 0.169247 -0.298755 2 0.169247
-1 -0.886633 -0.30223 -2 -0.886633 -0.30223
-1 0.217291 0.380368 -2 0.217291 0.380368
-0.352879 -1 0.427581 -0.352879 -2 0.427581
0.681494 -0.445432 1 0.681494 -0.445432 2
1 0.452709 0.131781 2 0.452709 0.131781
-0.907156 0.443247 -1 -0.907156 0.443247 -2
-1 -0.612533 0.471108 -2 -0.612533 0.471108
1 -0.905963 0.141543 2 -0.905963 0.141543
-0.553586 0.997052 -1 -0.553586 0.997052 -2
0.0214607 -1 -0.288267 0.0214607 -2 -0.288267
-0.257163 1 -0.192245 -0.257163 2 -0.192245
-0.450175 0.249676 -1 -0.450175 0.249676 -2
-1 -0.280196 0.888548 -2 -0.280196 0.888548
0.618449 -0.264102 -1 0.618449 -0.264102 -2
0.356197 -1 0.386246 0.356197 -2 0.386246
-0.198703 -0.399932 -1 -0.198703 -0.399932 -2
0.758826 0.416512 -1 0.758826 0.416512 -2
-0.871829 -0.681688 1 -0.871829 -0.681688 2
-1 -0.495531 0.536322 -2 -0.495531 0.536322
0.896605 -1 -0.867655 0.896605 -2 -0.867655
-0.204604 -1 0.069864 -0.204604 -2 0.069864
-1 -0.103635 0.415332 -2 -0.103635 0.415332
-0.289057 0.380573 1 -0.289057 0.380573 2
0.0679 0.414271 -1 0.0679 0.414271 -2
-0.978576 -1 -0.243531 -0.978576 -2 -0.243531
-0.259709 0.914847 -1 -0.259709 0.914847 -2
1 -0.098475 -0.167055 2 -0.098475 -0.167055
-0.281512 1 -0.0863447 -0.281512 2 -0.0863447
1 -0.659697 0.375002 2 -0.659697 0.375002
-1 -0.118029 -0.293049 -2 -0.118029 -0.293049
-0.387433 -0.0881359 -1 -0.387433 -0.0881359 -2
0.642559 -1 -0.87645 0.642559 -2 -0.87645
1 0.984595 0.0664953 2 0.984595 0.0664953
-0.496882 -1 0.836705 -0.496882 -2 0.836705
0.848895 -0.775967 1 0.848895 -0.775967 2
-0.281149 0.317979 1 -0.281149 0.317979 2
0.859734 0.447459 -1 0.859734 0.447459 -2
-0.150989 -1 0.439588 -0.150989 -2 0.439588
1 -0.441671 -0.600651 2 -0.441671 -0.600651
0.0910751 -0.698839 -1 0.0910751 -0.698839 -2
0.139015 0.363466 -1 0.139015 0.363466 -2
1 -0.64323 0.339064 2 -0.64323 0.339064
-0.0611404 -0.414003 -1 -0.0611404 -0.414003 -2
0.454221 0.870624 -1 0.454221 0.870624 -2
-0.922139 -0.392666 -1 -0.922139 -0.392666 -2
1 0.294332 0.747052 2 0.294332 0.747052
-1 0.921195 -0.532526 -2 0.921195 -0.532526
1 0.312509 -0.345488 2 0.312509 -0.345488
-0.480582 -0.850476 -1 -0.480582 -0.850476 -2
-0.859872 -1 -0.0555209 -0.859872 -2 -0.0555209
1 -0.523419 -0.619993 2 -0.523419 -0.619993
1 0.835452 -0.721773 2 0.835452 -0.721773
0.803499 1 -0.408586 0.803499 2 -0.408586
-0.399896 1 -0.945013 -0.399896 2 -0.945013
0.906416 1 -0.126697 0.906416 2 -0.126697
-0.918747 1 -0.585312 -0.918747 2 -0.585312
-0.0869312 -0.140099 1 -0.0869312 -0.140099 2
-0.613293 -0.172633 -1 -0.613293 -0.172633 -2
-0.105716 -1 0.267038 -0.105716 -2 0.267038
1 -0.717396 -0.995072 2 -0.717396 -0.995072
-0.593964 0.635436 -1 -0.593964 0.635436 -2
0.695677 -0.0626284 1 0.695677 -0.0626284 2
1 -0.8356 0.193184 2 -0.8356 0.193184
-0.371011 -0.948252 1 -0.371011 -0.948252 2
0.813568 1 0.360235 0.813568 2 0.360235
1 0.967311 -0.428596 2 0.967311 -0.428596
-1 0.64517 0.633175 -2 0.64517 0.633175
-0.137517 -1 0.411146 -0.137517 -2 0.411146
0.573743 -0.900455 -1 0.573743 -0.900455 -2
-0.882772 -0.834953 -1 -0.882772 -0.834953 -2
0.132493 -0.053303 1 0.132493 -0.053303 2
-0.161347 -1 -0.926614 -0.161347 -2 -0.926614
-0.916894 1 0.934917 -0.916894 2 0.934917
-0.327069 -1 -0.380464 -0.327069 -2 -0.380464
-1 -0.413006 -0.61633 -2 -0.413006 -0.61633
0.533437 1 0.525556 0.533437 2 0.525556
-1 0.092128 -0.39559 -2 0.092128 -0.39559
1 -0.51867 -0.444665 2 -0.51867 -0.444665
-1 -0.796467 0.192777 -2 -0.796467 0.192777
1 0.502334 0.779169 2 0.502334 0.779169
1 -0.563609 0.943212 2 -0.563609 0.943212
0.499064 1 0.730456 0.499064 2 0.730456
-0.164164 -1 -0.270685 -0.164164 -2 -0.270685
-0.75199 0.981214 -1 -0.75199 0.981214 -2
0.971114 -0.522567 1 0.971114 -0.522567 2
1 0.904516 0.105543 2 0.904516 0.105543
0.786564 -1 -0.436611 0.786564 -2 -0.436611
-0.840899 -1 0.910028 -0.840899 -2 0.910028
-0.961677 -1 -0.0533729 -0.961677 -2 -0.0533729
0.0684234 0.00761545 -1 0.0684234 0.00761545 -2
0.51374 -0.0521927 1 0.51374 -0.0521927 2
0.559494 0.853064 1 0.559494 0.853064 2
0.300879 1 -0.877867 0.300879 2 -0.877867
-0.964087 -1 -0.412985 -0.964087 -2 -0.412985
0.873475 -0.495017 -1 0.873475 -0.495017 -2
0.0190443 0.766957 -1 0.0190443 0.766957 -2
1 0.697588 0.0647288 2 0.697588 0.0647288
-0.246344 0.891168 -1 -0.246344 0.891168 -2
-0.069455 0.847151 1 -0.069455 0.847151 2
0.0719948 -1 -0.912002 0.0719948 -2 -0.912002
1 -0.253186 0.495285 2 -0.253186 0.495285
-0.656469 -0.926669 1 -0.656469 -0.926669 2
0.22161 -0.60467 -1 0.22161 -0.60467 -2
-0.487381 1 -0.580476 -0.487381 2 -0.580476
-0.295065 0.482312 -1 -0.295065 0.482312 -2
0.136885 -0.628511 -1 0.136885 -0.628511 -2
-0.428287 -1 0.623218 -0.428287 -2 0.623218
-0.95172 -1 0.634316 -0.95172 -2 0.634316
0.953093 0.589973 1 0.953093 0.589973 2
-1 0.604033 0.0215385 -2 0.604033 0.0215385
-0.711435 0.772387 -1 -0.711435 0.772387 -2
-0.726916 -0.996334 1 -0.726916 -0.996334 2
-0.862047 1 -0.401229 -0.862047 2 -0.401229
-0.142306 -1 -0.871242 -0.142306 -2 -0.871242
-1 -0.496861 -0.0558958 -2 -0.496861 -0.0558958
0.345673 1 0.278536 0.345673 2 0.278536
-0.213075 -0.362118 1 -0.213075 -0.362118 2
0.502509 0.327504 -1 0.502509 0.327504 -2
1 -0.427646 -0.878799 2 -0.427646 -0.878799
-0.646648 -1 0.308481 -0.646648 -2 0.308481
-1 0.633009 -0.985559 -2 0.633009 -0.985559
-1 -0.159356 -0.142739 -2 -0.159356 -0.142739
-1 0.700761 0.309427 -2 0.700761 0.309427
-1 -0.174508 0.112734 -2 -0.174508 0.112734
0.693364 1 0.843747 0.693364 2 0.843747
-1 -0.0740065 0.426519 -2 -0.0740065 0.426519
1 -0.963683 -0.941336 2 -0.963683 -0.941336
-0.27064 1 0.859277 -0.27064 2 0.859277
-1 0.912885 -0.86444 -2 0.912885 -0.86444
-0.662507 -1 0.194125 -0.662507 -2 0.194125
-0.68906 1 0.565107 -0.68906 2 0.565107
0.297286 -1 -0.216368 0.297286 -2 -0.216368
-1 0.402521 0.803391 -2 0.402521 0.803391
0.150674 0.310397 -1 0.150674 0.310397 -2
-0.428956 -1 -0.884682 -0.428956 -2 -0.884682
1 -0.521457 -0.349466 2 -0.521457 -0.349466
-0.68443 0.597768 1 -0.68443 0.597768 2
-1 -0.704098 0.0979472 -2 -0.704098 0.0979472
-0.109198 0.815381 1 -0.109198 0.815381 2
-1 0.653313 -0.226372 -2 0.653313 -0.226372
1 0.822211 0.724947 2 0.822211 0.724947
0.147395 0.942596 -1 0.147395 0.942596 -2
0.493855 -0.225951 -1 0.493855 -0.225951 -2
-0.088217 0.240059 -1 -0.088217 0.240059 -2
-0.285776 0.898305 -1 -0.285776 0.898305 -2
-0.551381 1 -0.946841 -0.551381 2 -0.946841
-0.271694 1 0.180434 -0.271694 2 0.180434
-0.718814 1 -0.0613826 -0.718814 2 -0.0613826
1 -0.157746 -0.401903 2 -0.157746 -0.401903
1 0.610344 -0.342885 2 0.610344 -0.342885
-0.969848 1 -0.467871 -0.969848 2 -0.467871
1 -0.800058 -0.286619 2 -0.800058 -0.286619
-1 0.356293 -0.21163 -2 0.356293 -0.21163
-1 0.0170383 0.807295 -2 0.0170383 0.807295
-1 0.332954 0.0452933 -2 0.332954 0.0452933
0.140787 -0.659424 1 0.140787 -0.659424 2
0.844569 0.523131 1 0.844569 0.523131 2
0.320214 -0.840267 1 0.320214 -0.840267 2
1 0.827628 -0.220317 2 0.827628 -0.220317
0.751157 0.44555 1 0.751157 0.44555 2
-0.446574 1 0.204102 -0.446574 2 0.204102
-0.308691 -0.288869 -1 -0.308691 -0.288869 -2
0.0194645 0.94711 -1 0.0194645 0.94711 -2
1 -0.93477 0.416311 2 -0.93477 0.416311
-1 0.349178 -0.640438 -2 0.349178 -0.640438
-1 0.671574 0.93632 -2 0.671574 0.93632
-0.661265 1 0.688621 -0.661265 2 0.688621
-0.00249607 -1 -0.954035 -0.00249607 -2 -0.954035
-0.899877 -1 -0.587797 -0.899877 -2 -0.587797
1 0.382426 0.6434 2 0.382426 0.6434
-0.289715 -0.533291 1 -0.289715 -0.533291 2
-0.708369 -1 0.117969 -0.708369 -2 0.117969
1 0.175768 -0.687579 2 0.175768 -0.687579
-1 0.935604 -0.693978 -2 0.935604 -0.693978
1 -0.448541 0.38915 2 -0.448541 0.38915
-1 0.465694 0.670363 -2 0.465694 0.670363
-0.818811 1 -0.314125 -0.818811 2 -0.314125
0.0647442 -0.155255 -1 0.0647442 -0.155255 -2
1 -0.637399 -0.0314966 2 -0.637399 -0.0314966
-0.946643 -1 -0.811867 -0.946643 -2 -0.811867
1 -0.779134 0.503051 2 -0.779134 0.503051
-0.88433 0.38275 1 -0.88433 0.38275 2
0.185769 -0.596672 1 0.185769 -0.596672 2
1 -0.787114 -0.820265 2 -0.787114 -0.820265
0.812501 -1 -0.48596 0.812501 -2 -0.48596
-0.83313 1 -0.14266 -0.83313 2 -0.14266
-0.901101 -0.868985 -1 -0.901101 -0.868985 -2
0.798081 0.653975 -1 0.798081 0.653975 -2
-0.526017 -0.129672 -1 -0.526017 -0.129672 -2
0.847559 1 -0.92094 0.847559 2 -0.92094
0.908885 -0.45586 1 0.908885 -0.45586 2
0.116991 1 -0.275154 0.116991 2 -0.275154
0.156832 0.865371 -1 0.156832 0.865371 -2
-0.875629 0.396842 -1 -0.875629 0.396842 -2
0.328941 0.588426 1 0.328941 0.588426 2
-0.856223 0.879114 -1 -0.856223 0.879114 -2
-1 0.0637939 -0.184453 -2 0.0637939 -0.184453
-0.453537 1 -0.226288 -0.453537 2 -0.226288
-1 -0.778661 0.692303 -2 -0.778661 0.692303
0.0969748 0.328548 1 0.0969748 0.328548 2
0.0512687 1 0.214722 0.0512687 2 0.214722
-0.361359 -1 0.757801 -0.361359 -2 0.757801
-0.970297 -0.858513 1 -0.970297 -0.858513 2
1 0.00372637 -0.36717 2 0.00372637 -0.36717
-0.334956 -1 -0.948436 -0.334956 -2 -0.948436
0.535058 -1 0.977775 0.535058 -2 0.977775
-0.49689 -1 -0.719353 -0.49689 -2 -0.719353
-0.389469 0.0785704 -1 -0.389469 0.0785704 -2
-1 0.0927027 -0.0543628 -2 0.0927027 -0.0543628
-1 -0.974858 -0.359946 -2 -0.974858 -0.359946
-1 -0.693781 0.863536 -2 -0.693781 0.863536
0.854738 -0.567457 1 0.854738 -0.567457 2
0.984211 -0.38385 1 0.984211 -0.38385 2
0.032021 -1 0.586182 0.032021 -2 0.586182
-0.818344 0.712053 -1 -0.818344 0.712053 -2
-0.851474 -1 -0.664434 -0.851474 -2 -0.664434
0.0199995 -0.848343 1 0.0199995 -0.848343 2
-0.297909 0.733522 1 -0.297909 0.733522 2
0.930944 0.301733 1 0.930944 0.301733 2
-1 0.285889 0.366688 -2 0.285889 0.366688
0.568624 1 -0.864974 0.568624 2 -0.864974
-0.0351857 0.00981466 -1 -0.0351857 0.00981466 -2
1 0.649477 -0.587388 2 0.649477 -0.587388
-0.110354 -1 0.478379 -0.110354 -2 0.478379
-1 0.937378 -0.519144 -2 0.937378 -0.519144
0.782009 -1 -0.992746 0.782009 -2 -0.992746
0.00226761 0.990897 -1 0.00226761 0.990897 -2
-0.687881 -1 -0.908172 -0.687881 -2 -0.908172
0.775283 1 -0.187538 0.775283 2 -0.187538
-0.533323 1 0.173398 -0.533323 2 0.173398
-0.881661 -0.686685 1 -0.881661 -0.686685 2
0.497939 1 -0.865917 0.497939 2 -0.865917
-1 -0.728734 0.589973 -2 -0.728734 0.589973
-0.699825 -1 -0.444178 -0.699825 -2 -0.444178
-0.494945 1 -0.147519 -0.494945 2 -0.147519
1 0.208617 -0.559555 2 0.208617 -0.559555
-0.715408 0.388165 -1 -0.715408 0.388165 -2
-0.840652 0.167956 1 -0.840652 0.167956 2
1 -0.342132 0.165666 2 -0.342132 0.165666
-0.0611935 -1 0.0606926 -0.0611935 -2 0.0606926
-0.0666234 -1 0.554416 -0.0666234 -2 0.554416
0.619536 0.905737 -1 0.619536 0.905737 -2
-0.883728 -0.526633 1 -0.883728 -0.526633 2
1 -0.706681 -0.895217 2 -0.706681 -0.895217
-0.268176 1 0.984932 -0.268176 2 0.984932
0.0662975 0.603705 -1 0.0662975 0.603705 -2
-0.212364 -0.422125 1 -0.212364 -0.422125 2
0.200275 0.451761 -1 0.200275 0.451761 -2
-1 -0.834708 -0.130523 -2 -0.834708 -0.130523
-0.363589 1 0.244564 -0.363589 2 0.244564
1 0.871946 0.665902 2 0.871946 0.665902
0.687082 -1 -0.53329 0.687082 -2 -0.53329
0.604911 1 0.780676 0.604911 2 0.780676
-1 0.5681 -0.0516218 -2 0.5681 -0.0516218
0.441277 0.490246 1 0.441277 0.490246 2
-0.590723 1 -0.303165 -0.590723 2 -0.303165
-0.767927 1 0.507629 -0.767927 2 0.507629
-1 0.252662 -0.486241 -2 0.252662 -0.486241
1 0.494101 -0.149957 2 0.494101 -0.149957
1 -0.991559 -0.831975 2 -0.991559 -0.831975
-1 0.629484 0.256034 -2 0.629484 0.256034
1 -0.871767 0.390246 2 -0.871767 0.390246
0.324404 0.32901 1 0.324404 0.32901 2
0.158876 0.843806 1 0.158876 0.843806 2
0.716298 0.958606 1 0.716298 0.958606 2
1 0.26062 0.954587 2 0.26062 0.954587
0.532315 0.962067 1 0.532315 0.962067 2
0.429021 -0.00858832 1 0.429021 -0.00858832 2
-0.429151 -0.303512 -1 -0.429151 -0.303512 -2
0.573538 1 0.554809 0.573538 2 0.554809
0.61179 -0.359825 -1 0.61179 -0.359825 -2
1 -0.243991 0.148643 2 -0.243991 0.148643
0.972757 -1 -0.901855 0.972757 -2 -0.901855
-0.00317427 0.403439 -1 -0.00317427 0.403439 -2
0.506511 -1 0.44277 0.506511 -2 0.44277
-1 0.821063 0.395839 -2 0.821063 0.395839
0.783898 -0.9695 -1 0.783898 -0.9695 -2
-0.303005 0.720413 -1 -0.303005 0.720413 -2
1 -0.917334 -0.573159 2 -0.917334 -0.573159
0.636191 0.823039 -1 0.636191 0.823039 -2
-0.288418 -1 -0.72632 -0.288418 -2 -0.72632
1 -0.713164 -0.293407 2 -0.713164 -0.293407
-0.669279 1 0.527388 -0.669279 2 0.527388
-0.334054 0.571924 1 -0.334054 0.571924 2
1 -0.473817 -0.913286 2 -0.473817 -0.913286
-0.0433388 1 0.824307 -0.0433388 2 0.824307
-0.237688 -1 0.761245 -0.237688 -2 0.761245
-0.19755 -0.130366 -1 -0.19755 -0.130366 -2
-1 0.902714 0.0807142 -2 0.902714 0.0807142
-1 -0.57354 0.448026 -2 -0.57354 0.448026
-0.418583 0.199347 1 -0.418583 0.199347 2
-1 -0.656934 -0.906937 -2 -0.656934 -0.906937
-1 0.878275 0.83764 -2 0.878275 0.83764
0.0980937 1 -0.661523 0.0980937 2 -0.661523
-0.452106 1 -0.155846 -0.452106 2 -0.155846
-0.662335 0.975466 1 -0.662335 0.975466 2
-0.512454 -0.331022 1 -0.512454 -0.331022 2
-1 -0.880884 0.975138 -2 -0.880884 0.975138
0.959697 -0.414284 1 0.959697 -0.414284 2
0.427819 0.821004 -1 0.427819 0.821004 -2
-1 -0.965559 0.404809 -2 -0.965559 0.404809
1 0.274083 -0.207515 2 0.274083 -0.207515
1 -0.15525 0.732799 2 -0.15525 0.732799
-0.0637624 0.637476 1 -0.0637624 0.637476 2
-0.314722 1 -0.469767 -0.314722 2 -0.469767
-0.904449 0.950862 -1 -0.904449 0.950862 -2
1 0.981654 0.640361 2 0.981654 0.640361
0.516914 -1 -0.714238 0.516914 -2 -0.714238
-0.897271 -0.674189 1 -0.897271 -0.674189 2
1 0.256142 0.235148 2 0.256142 0.235148
-0.386231 -1 -0.766598 -0.386231 -2 -0.766598
-0.0925773 0.362143 -1 -0.0925773 0.362143 -2
-1 -0.361077 0.172456 -2 -0.361077 0.172456
-0.961224 0.873396 -1 -0.961224 0.873396 -2
0.24483 1 -0.856415 0.24483 2 -0.856415
0.98689 1 -0.65784 0.98689 2 -0.65784
-1 -0.804521 0.422549 -2 -0.804521 0.422549
0.672397 0.653012 1 0.672397 0.653012 2
-0.576587 -0.0334113 -1 -0.576587 -0.0334113 -2
0.732176 0.778323 1 0.732176 0.778323 2
1 0.943874 -0.363592 2 0.943874 -0.363592
0.872252 0.0593295 -1 0.872252 0.0593295 -2
-0.492374 1 0.856527 -0.492374 2 0.856527
-0.29227 -1 0.364865 -0.29227 -2 0.364865
0.992632 0.834809 -1 0.992632 0.834809 -2
-1 0.713294 -0.330039 -2 0.713294 -0.330039
-0.634857 -0.560664 -1 -0.634857 -0.560664 -2
-0.7118 1 -0.774355 -0.7118 2 -0.774355
0.655298 -1 0.790703 0.655298 -2 0.790703
-0.117872 -0.0831726 1 -0.117872 -0.0831726 2
-0.639403 0.0660614 -1 -0.639403 0.0660614 -2
0.276582 -0.520396 -1 0.276582 -0.520396 -2
-0.695252 -1 -0.227602 -0.695252 -2 -0.227602
-1 -0.353247 -0.97774 -2 -0.353247 -0.97774
-0.520244 0.702357 1 -0.520244 0.702357 2
-0.952979 0.0916852 1 -0.952979 0.0916852 2
0.87398 -0.989977 -1 0.87398 -0.989977 -2
0.928436 1 -0.224883 0.928436 2 -0.224883
-1 -0.175824 0.530511 -2 -0.175824 0.530511
-0.373945 -0.182733 -1 -0.373945 -0.182733 -2
0.5743 -0.161495 1 0.5743 -0.161495 2
0.364191 -1 0.314471 0.364191 -2 0.314471
-1 -0.318884 -0.511183 -2 -0.318884 -0.511183
0.607879 0.227987 1 0.607879 0.227987 2
-0.748107 0.68457 -1 -0.748107 0.68457 -2
-0.195941 -1 0.132218 -0.195941 -2 0.132218
0.694999 -1 0.548857 0.694999 -2 0.548857
0.213791 0.34586 -1 0.213791 0.34586 -2
-0.871455 0.734063 -1 -0.871455 0.734063 -2
0.799909 -0.123811 1 0.799909 -0.123811 2
-0.226888 0.530626 1 -0.226888 0.530626 2
-0.403876 0.820954 -1 -0.403876 0.820954 -2
-0.514872 -0.541814 -1 -0.514872 -0.541814 -2
-0.875264 1 -0.751539 -0.875264 2 -0.751539
0.150187 0.955328 -1 0.150187 0.955328 -2
1 -0.260387 0.36058 2 -0.260387 0.36058
1 -0.475121 -0.839506 2 -0.475121 -0.839506
-0.530808 -1 0.993665 -0.530808 -2 0.993665
0.281574 1 -0.417635 0.281574 2 -0.417635
-1 0.794993 0.548861 -2 0.794993 0.548861
-0.500473 -0.958244 1 -0.500473 -0.958244 2
-0.228742 0.638313 -1 -0.228742 0.638313 -2
-1 0.516032 -0.952842 -2 0.516032 -0.952842
0.386753 -1 -0.452038 0.386753 -2 -0.452038
-1 0.905269 -0.853339 -2 0.905269 -0.853339
-0.659509 -0.514735 -1 -0.659509 -0.514735 -2
0.558256 -1 0.167773 0.558256 -2 0.167773
1 -0.0652836 -0.287231 2 -0.0652836 -0.287231
-1 0.963673 -0.448201 -2 0.963673 -0.448201
0.38533 -1 -0.367793 0.38533 -2 -0.367793
0.0449702 0.975662 1 0.0449702 0.975662 2
0.697225 -0.0486398 1 0.697225 -0.0486398 2
0.418911 -1 0.0496618 0.418911 -2 0.0496618
0.857527 -0.452467 -1 0.857527 -0.452467 -2
-1 0.773057 -0.766614 -2 0.773057 -0.766614
-0.562245 0.672325 -1 -0.562245 0.672325 -2
0.344728 -0.815515 1 0.344728 -0.815515 2
-0.262165 0.745181 1 -0.262165 0.745181 2
-0.202616 -0.56779 1 -0.202616 -0.56779 2
0.361871 -0.674892 1 0.361871 -0.674892 2
-1 -0.395992 -0.561183 -2 -0.395992 -0.561183
-0.688446 1 -0.621471 -0.688446 2 -0.621471
-1 0.303194 0.222949 -2 0.303194 0.222949
-0.32148 1 -0.881459 -0.32148 2 -0.881459
-1 -0.568161 0.832486 -2 -0.568161 0.832486
-0.459334 0.116526 1 -0.459334 0.116526 2
1 0.736917 -0.904446 2 0.736917 -0.904446
-0.986753 -0.789612 1 -0.986753 -0.789612 2
-0.144139 0.389627 -1 -0.144139 0.389627 -2
0.0240408 0.963412 -1 0.0240408 0.963412 -2
-0.0893 -0.0703885 -1 -0.0893 -0.0703885 -2
1 -0.969709 -0.0400446 2 -0.969709 -0.0400446
-1 -0.847916 -0.787235 -2 -0.847916 -0.787235
1 0.925276 -0.96467 2 0.925276 -0.96467
-0.448329 -0.513777 1 -0.448329 -0.513777 2
0.951998 1 -0.238541 0.951998 2 -0.238541
0.249183 0.547195 -1 0.249183 0.547195 -2
1 -0.982832 0.547092 2 -0.982832 0.547092
-0.747892 0.552371 -1 -0.747892 0.552371 -2
-0.863572 0.229066 -1 -0.863572 0.229066 -2
0.189945 -0.412551 1 0.189945 -0.412551 2
1 0.806187 -0.607322 2 0.806187 -0.607322
-1 0.103623 0.494235 -2 0.103623 0.494235
-0.679109 -1 -0.03554 -0.679109 -2 -0.03554
0.888444 -0.0701664 -1 0.888444 -0.0701664 -2
-0.834237 1 -0.980339 -0.834237 2 -0.980339
0.247657 -0.385782 1 0.247657 -0.385782 2
0.307004 1 0.729254 0.307004 2 0.729254
0.378679 -0.450917 -1 0.378679 -0.450917 -2
-0.724401 -0.158599 -1 -0.724401 -0.158599 -2
0.643634 -0.798215 1 0.643634 -0.798215 2
1 -0.939538 -0.0517082 2 -0.939538 -0.0517082
-1 -0.266974 -0.96803 -2 -0.266974 -0.96803
-0.319104 -0.81158 -1 -0.319104 -0.81158 -2
0.88826 -0.979095 -1 0.88826 -0.979095 -2
-1 -0.544259 -0.63668 -2 -0.544259 -0.63668
-0.175298 0.554541 1 -0.175298 0.554541 2
-0.116608 -0.171489 -1 -0.116608 -0.171489 -2
0.648237 -1 0.575292 0.648237 -2 0.575292
-0.0986401 -0.94231 1 -0.0986401 -0.94231 2
-0.964834 1 -0.832578 -0.964834 2 -0.832578
0.834035 -0.547488 1 0.834035 -0.547488 2
-0.352596 0.421988 1 -0.352596 0.421988 2
-0.790202 0.242089 1 -0.790202 0.242089 2
-1 -0.411705 -0.469196 -2 -0.411705 -0.469196
0.951421 0.484951 1 0.951421 0.484951 2
0.943215 1 -0.612931 0.943215 2 -0.612931
0.856413 0.267739 -1 0.856413 0.267739 -2
-0.59792 1 0.36961 -0.59792 2 0.36961
0.343191 -0.0104068 -1 0.343191 -0.0104068 -2
0.858268 -1 0.76853 0.858268 -2 0.76853
1 0.335265 0.130849 2 0.335265 0.130849
-1 0.591145 0.824226 -2 0.591145 0.824226
-0.623826 1 -0.0926716 -0.623826 2 -0.0926716
-0.740884 1 -0.681327 -0.740884 2 -0.681327
0.600516 1 -0.880639 0.600516 2 -0.880639
0.878043 0.726876 -1 0.878043 0.726876 -2
-0.689436 -1 -0.501536 -0.689436 -2 -0.501536
0.876555 -1 0.136211 0.876555 -2 0.136211
1 -0.581432 -0.252598 2 -0.581432 -0.252598
-0.992433 1 -0.454902 -0.992433 2 -0.454902
-0.819224 -0.44335 -1 -0.819224 -0.44335 -2
-0.299456 0.151993 -1 -0.299456 0.151993 -2
-1 0.689872 -0.672791 -2 0.689872 -0.672791
-0.949928 0.289032 -1 -0.949928 0.289032 -2
0.990416 1 0.0716726 0.990416 2 0.0716726
0.666231 -1 -0.985209 0.666231 -2 -0.985209
-0.587936 1 -0.0111606 -0.587936 2 -0.0111606
1 0.675196 -0.303687 2 0.675196 -0.303687
0.927561 0.482383 -1 0.927561 0.482383 -2
0.603873 0.89348 -1 0.603873 0.89348 -2
0.320018 1 -0.538857 0.320018 2 -0.538857
1 -0.444408 -0.615991 2 -0.444408 -0.615991
-0.939076 -0.945381 -1 -0.939076 -0.945381 -2
0.787193 -1 0.137725 0.787193 -2 0.137725
-0.876466 -1 -0.0703947 -0.876466 -2 -0.0703947
0.724992 -0.937279 -1 0.724992 -0.937279 -2
-0.745805 0.14923 -1 -0.745805 0.14923 -2
-0.545199 -0.483338 1 -0.545199 -0.483338 2
-0.859518 0.583856 1 -0.859518 0.583856 2
-0.808952 -1 -0.49903 -0.808952 -2 -0.49903
-0.615129 -0.472133 -1 -0.615129 -0.472133 -2
0.13578 1 -0.0622348 0.13578 2 -0.0622348
0.511023 -1 0.282906 0.511023 -2 0.282906
-1 0.188917 0.393931 -2 0.188917 0.393931
-0.813327 -1 0.0372948 -0.813327 -2 0.0372948
0.333011 -0.913202 -1 0.333011 -0.913202 -2
0.74087 1 0.196224 0.74087 2 0.196224
-1 -0.530433 -0.282695 -2 -0.530433 -0.282695
-0.408759 0.756699 -1 -0.408759 0.756699 -2
0.789694 0.172571 1 0.789694 0.172571 2
0.121671 0.919986 -1 0.121671 0.919986 -2
-0.936836 0.353407 -1 -0.936836 0.353407 -2
0.833556 -1 -0.587855 0.833556 -2 -0.587855
0.553189 -0.99259 1 0.553189 -0.99259 2
-0.442164 0.738015 -1 -0.442164 0.738015 -2
1 -0.211881 0.677825 2 -0.211881 0.677825
-0.359465 1 0.425431 -0.359465 2 0.425431
0.210401 0.770657 -1 0.210401 0.770657 -2
-0.909882 -0.193236 -1 -0.909882 -0.193236 -2
-0.450962 -1 -0.767187 -0.450962 -2 -0.767187
-1 -0.669795 -0.753356 -2 -0.669795 -0.753356
-0.254019 -0.696966 -1 -0.254019 -0.696966 -2
-1 -0.571667 -0.175605 -2 -0.571667 -0.175605
0.2869 -1 -0.784529 0.2869 -2 -0.784529
-0.508923 -1 -0.384214 -0.508923 -2 -0.384214
-0.102088 0.561691 -1 -0.102088 0.561691 -2
-0.450374 -0.881269 1 -0.450374 -0.881269 2
0.3673 0.478425 -1 0.3673 0.478425 -2
-0.700601 -0.992682 -1 -0.700601 -0.992682 -2
1 -0.606837 -0.712266 2 -0.606837 -0.712266
0.566702 0.131233 1 0.566702 0.131233 2
0.709151 -1 0.402692 0.709151 -2 0.402692
0.101737 1 0.289452 0.101737 2 0.289452
-0.68818 1 0.413274 -0.68818 2 0.413274
-0.140096 0.621541 -1 -0.140096 0.621541 -2
0.115009 0.614261 1 0.115009 0.614261 2
1 -0.770195 -0.638617 2 -0.770195 -0.638617
0.745246 -0.900685 1 0.745246 -0.900685 2
1 0.82919 0.0179103 2 0.82919 0.0179103
-0.680594 0.851709 1 -0.680594 0.851709 2
0.498573 1 0.477589 0.498573 2 0.477589
1 0.969298 0.958803 2 0.969298 0.958803
-0.454577 0.741584 -1 -0.454577 0.741584 -2
1 -0.701356 0.456518 2 -0.701356 0.456518
0.990431 1 -0.165623 0.990431 2 -0.165623
-0.851198 0.938231 1 -0.851198 0.938231 2
-0.0331766 1 0.810624 -0.0331766 2 0.810624
1 -0.620403 -0.729992 2 -0.620403 -0.729992
0.417699 -1 -0.314009 0.417699 -2 -0.314009
-1 0.236838 -0.535648 -2 0.236838 -0.535648
1 0.318978 0.845462 2 0.318978 0.845462
0.0710831 -1 0.378529 0.0710831 -2 0.378529
1 -0.520149 0.905487 2 -0.520149 0.905487
1 -0.749154 0.725457 2 -0.749154 0.725457
0.861109 0.518563 1 0.861109 0.518563 2
0.870167 0.976075 -1 0.870167 0.976075 -2
-0.367865 0.170909 -1 -0.367865 0.170909 -2
-0.913918 -0.689547 -1 -0.913918 -0.689547 -2
0.0665709 -1 0.917828 0.0665709 -2 0.917828
0.0822483 0.809441 -1 0.0822483 0.809441 -2
-1 0.606643 0.15416 -2 0.606643 0.15416
0.274294 0.842847 1 0.274294 0.842847 2
-1 0.299048 -0.107933 -2 0.299048 -0.107933
-1 0.396518 -0.282786 -2 0.396518 -0.282786
-1 -0.126977 0.639152 -2 -0.126977 0.639152
1 0.339833 0.368279 2 0.339833 0.368279
-1 -0.510038 0.249077 -2 -0.510038 0.249077
1 0.0300588 0.0393866 2 0.0300588 0.0393866
0.0411068 1 0.917601 0.0411068 2 0.917601
0.445562 1 -0.560583 0.445562 2 -0.560583
1 -0.0240026 -0.435983 2 -0.0240026 -0.435983
-0.354147 -0.163574 -1 -0.354147 -0.163574 -2
0.933268 1 0.560868 0.933268 2 0.560868
1 0.805759 0.200255 2 0.805759 0.200255
-1 0.707405 0.646828 -2 0.707405 0.646828
0.693918 -0.677256 -1 0.693918 -0.677256 -2
-0.32983 -0.548851 -1 -0.32983 -0.548851 -2
-1 -0.367963 0.351299 -2 -0.367963 0.351299
-0.135249 -0.0254575 1 -0.135249 -0.0254575 2
1 -0.304957 -0.714238 2 -0.304957 -0.714238
0.714431 1 0.563899 0.714431 2 0.563899
-1 0.526021 -0.830388 -2 0.526021 -0.830388
0.142022 -1 0.229063 0.142022 -2 0.229063
-0.158772 0.272277 1 -0.158772 0.272277 2
-0.610638 0.442551 -1 -0.610638 0.442551 -2
0.0115429 -0.000722096 -1 0.0115429 -0.000722096 -2
-1 0.37268 0.368277 -2 0.37268 0.368277
0.662962 1 -0.406665 0.662962 2 -0.406665
0.220045 -1 -0.486537 0.220045 -2 -0.486537
-0.476309 -0.798812 1 -0.476309 -0.798812 2
-1 -0.144975 0.198885 -2 -0.144975 0.198885
-1 -0.722266 0.779288 -2 -0.722266 0.779288
0.871586 0.62202 1 0.871586 0.62202 2
1 -0.640358 0.318953 2 -0.640358 0.318953
-0.585959 0.55369 -1 -0.585959 0.55369 -2
0.754411 0.611354 -1 0.754411 0.611354 -2
1 0.886893 0.979539 2 0.886893 0.979539
-1 0.727353 -0.618082 -2 0.727353 -0.618082
0.5536 -0.0979935 1 0.5536 -0.0979935 2
-0.812855 -0.0299746 -1 -0.812855 -0.0299746 -2
-1 -0.622005 -0.179654 -2 -0.622005 -0.179654
1 0.698607 -0.811957 2 0.698607 -0.811957
-1 -0.575544 0.10795 -2 -0.575544 0.10795
-0.242814 0.985528 -1 -0.242814 0.985528 -2
0.515676 0.476415 1 0.515676 0.476415 2
0.687258 -1 0.428447 0.687258 -2 0.428447
-0.341016 0.0984447 -1 -0.341016 0.0984447 -2
0.728319 1 -0.857282 0.728319 2 -0.857282
0.199233 -0.506586 -1 0.199233 -0.506586 -2
-0.496166 -0.487595 -1 -0.496166 -0.487595 -2
1 0.308179 0.870214 2 0.308179 0.870214
1 0.165537 0.360435 2 0.165537 0.360435
-0.498644 1 0.660787 -0.498644 2 0.660787
1 -0.679133 -0.667777 2 -0.679133 -0.667777
-0.578788 0.172443 -1 -0.578788 0.172443 -2
-1 0.304321 0.685466 -2 0.304321 0.685466
-1 0.454206 0.165239 -2 0.454206 0.165239
0.901084 0.426857 1 0.901084 0.426857 2
0.563126 0.0273243 1 0.563126 0.0273243 2
0.611282 -0.579468 1 0.611282 -0.579468 2
-1 -0.576824 0.988126 -2 -0.576824 0.988126
1 0.188178 -0.105888 2 0.188178 -0.105888
-0.699938 0.356798 1 -0.699938 0.356798 2
0.964514 0.549439 1 0.964514 0.549439 2
-0.386481 0.596062 -1 -0.386481 0.596062 -2
-0.932946 -1 -0.289229 -0.932946 -2 -0.289229
0.0208565 -0.535245 -1 0.0208565 -0.535245 -2
-1 0.699931 0.263686 -2 0.699931 0.263686
-0.83333 0.12495 -1 -0.83333 0.12495 -2
1 0.630865 0.574803 2 0.630865 0.574803
0.570412 0.478125 1 0.570412 0.478125 2
-0.892505 -0.0906234 1 -0.892505 -0.0906234 2
0.768072 0.75525 1 0.768072 0.75525 2
-0.473516 0.748484 -1 -0.473516 0.748484 -2
0.237274 0.129228 -1 0.237274 0.129228 -2
0.425905 -0.389618 1 0.425905 -0.389618 2
0.642209 -0.75791 1 0.642209 -0.75791 2
-0.793118 -1 0.739739 -0.793118 -2 0.739739
0.571309 -1 0.697057 0.571309 -2 0.697057
-0.41733 0.454937 -1 -0.41733 0.454937 -2
-0.414119 0.167098 -1 -0.414119 0.167098 -2
-0.552006 -1 0.394035 -0.552006 -2 0.394035
-1 -0.651206 0.917322 -2 -0.651206 0.917322
-1 -0.538052 -0.956312 -2 -0.538052 -0.956312
0.283601 1 -0.476022 0.283601 2 -0.476022
-0.199696 0.589291 -1 -0.199696 0.589291 -2
-0.0923475 1 0.674376 -0.0923475 2 0.674376
1 -0.0840415 0.203373 2 -0.0840415 0.203373
1 0.0572982 0.272978 2 0.0572982 0.272978
-1 -0.186684 -0.406834 -2 -0.186684 -0.406834
1 -0.220098 0.24979 2 -0.220098 0.24979
-0.246015 -0.0216115 -1 -0.246015 -0.0216115 -2
0.100211 -1 0.353061 0.100211 -2 0.353061
-0.0276103 0.571809 -1 -0.0276103 0.571809 -2
-0.782139 1 0.793326 -0.782139 2 0.793326
1 -0.40777 0.362849 2 -0.40777 0.362849
1 -0.902584 0.498298 2 -0.902584 0.498298
0.444329 -0.717748 1 0.444329 -0.717748 2
-0.32076 -1 0.204696 -0.32076 -2 0.204696
-0.666551 0.16625 -1 -0.666551 0.16625 -2
-0.604304 -0.263307 1 -0.604304 -0.263307 2
-1 -0.633846 -0.944664 -2 -0.633846 -0.944664
-0.00999774 0.169097 1 -0.00999774 0.169097 2
-0.444658 -0.814603 1 -0.444658 -0.814603 2
-0.354079 -1 -0.298545 -0.354079 -2 -0.298545
1 -0.755886 -0.38182 2 -0.755886 -0.38182
-0.125792 1 0.609405 -0.125792 2 0.609405
-0.970574 0.0373041 1 -0.970574 0.0373041 2
0.86544 0.553868 -1 0.86544 0.553868 -2
-1 0.990979 0.61961 -2 0.990979 0.61961
-0.396442 1 -0.996528 -0.396442 2 -0.996528
1 -0.507017 -0.939049 2 -0.507017 -0.939049
-0.511076 -0.21607 1 -0.511076 -0.21607 2
-0.983479 -1 -0.589934 -0.983479 -2 -0.589934
-0.549321 -1 0.186384 -0.549321 -2 0.186384
0.700707 0.91657 -1 0.700707 0.91657 -2
1 0.564739 -0.863588 2 0.564739 -0.863588
0.552302 1 0.877413 0.552302 2 0.877413
-0.846934 1 0.252389 -0.846934 2 0.252389
0.889803 -1 0.816255 0.889803 -2 0.816255
1 -0.924177 -0.184035 2 -0.924177 -0.184035
-0.823905 -0.344093 1 -0.823905 -0.344093 2
0.0844124 0.690569 -1 0.0844124 0.690569 -2
-0.706729 1 0.659941 -0.706729 2 0.659941
-0.92758 1 -0.751305 -0.92758 2 -0.751305
-0.26853 -0.00843288 1 -0.26853 -0.00843288 2
1 -0.0675851 -0.969781 2 -0.0675851 -0.969781
0.666032 -0.330241 1 0.666032 -0.330241 2
1 -0.48515 -0.117779 2 -0.48515 -0.117779
-0.795691 0.527499 -1 -0.795691 0.527499 -2
-1 0.416106 0.903345 -2 0.416106 0.903345
0.162107 -0.53416 -1 0.162107 -0.53416 -2
0.715453 1 -0.616906 0.715453 2 -0.616906
0.393525 -1 -0.629226 0.393525 -2 -0.629226
-0.85975 -1 0.825184 -0.85975 -2 0.825184
0.985394 -0.503642 1 0.985394 -0.503642 2
-1 0.673169 0.0523906 -2 0.673169 0.0523906
-0.582293 1 0.833913 -0.582293 2 0.833913
0.634015 0.113444 -1 0.634015 0.113444 -2
0.0199321 0.350727 -1 0.0199321 0.350727 -2
-0.417872 -0.822052 -1 -0.417872 -0.822052 -2
0.651716 -1 -0.956388 0.651716 -2 -0.956388
0.454441 -1 -0.763961 0.454441 -2 -0.763961
-0.162613 -1 -0.206213 -0.162613 -2 -0.206213
0.626856 0.91359 -1 0.626856 0.91359 -2
-1 0.934848 0.0147936 -2 0.934848 0.0147936
0.819373 -0.981287 1 0.819373 -0.981287 2
-0.823188 -0.352203 -1 -0.823188 -0.352203 -2
0.767493 -0.969561 1 0.767493 -0.969561 2
-1 -0.357786 -0.297201 -2 -0.357786 -0.297201
0.932524 1 -0.937838 0.932524 2 -0.937838
0.506306 1 0.809466 0.506306 2 0.809466
-1 -0.445554 -0.27079 -2 -0.445554 -0.27079
0.0475132 -0.553562 -1 0.0475132 -0.553562 -2
0.32001 1 -0.40548 0.32001 2 -0.40548
1 0.759957 0.350799 2 0.759957 0.350799
-0.151581 -1 -0.775548 -0.151581 -2 -0.775548
0.681006 1 0.33804 0.681006 2 0.33804
-0.684569 1 0.9197 -0.684569 2 0.9197
0.149596 -0.266744 -1 0.149596 -0.266744 -2
0.647973 0.129087 1 0.647973 0.129087 2
0.00623872 0.396382 1 0.00623872 0.396382 2
-0.340463 1 0.795137 -0.340463 2 0.795137
-1 -0.504078 0.731348 -2 -0.504078 0.731348
1 -0.820316 -0.57376 2 -0.820316 -0.57376
-0.554359 -0.882684 -1 -0.554359 -0.882684 -2
-0.751371 -1 0.667862 -0.751371 -2 0.667862
-0.154445 1 -0.10133 -0.154445 2 -0.10133
0.421585 1 0.415914 0.421585 2 0.415914
-0.518517 1 0.470281 -0.518517 2 0.470281
-1 -0.858903 0.299747 -2 -0.858903 0.299747
-0.462091 -0.0127 -1 -0.462091 -0.0127 -2
1 0.206212 -0.987286 2 0.206212 -0.987286
-0.906449 0.296055 -1 -0.906449 0.296055 -2
0.745872 -0.390012 1 0.745872 -0.390012 2
0.99135 -0.386026 1 0.99135 -0.386026 2
0.362279 0.179694 1 0.362279 0.179694 2
-0.668908 -0.216544 -1 -0.668908 -0.216544 -2
-0.860671 0.479732 1 -0.860671 0.479732 2
-1 -0.167136 -0.946233 -2 -0.167136 -0.946233
1 -0.0890466 0.513839 2 -0.0890466 0.513839
-1 0.0727396 -0.533937 -2 0.0727396 -0.533937
-0.210121 -0.711417 1 -0.210121 -0.711417 2
0.411885 -0.0300085 1 0.411885 -0.0300085 2
-0.0960386 0.588808 1 -0.0960386 0.588808 2
-1 -0.639813 -0.671218 -2 -0.639813 -0.671218
1 0.73554 -0.0403201 2 0.73554 -0.0403201
-0.0815138 0.0972262 1 -0.0815138 0.0972262 2
0.769019 -1 0.67342 0.769019 -2 0.67342
0.829233 0.862079 -1 0.829233 0.862079 -2
1 -0.750704 -0.834345 2 -0.750704 -0.834345
-0.625763 1 0.524891 -0.625763 2 0.524891
-1 0.282788 -0.809678 -2 0.282788 -0.809678
0.323182 0.601873 1 0.323182 0.601873 2
-0.179526 0.536698 -1 -0.179526 0.536698 -2
0.916947 1 0.8763 0.916947 2 0.8763
0.0329778 1 -0.257421 0.0329778 2 -0.257421
0.806267 -1 0.730722 0.806267 -2 0.730722
1 0.513812 -0.851415 2 0.513812 -0.851415
1 -0.475465 -0.0390031 2 -0.475465 -0.0390031
-0.184377 0.233747 -1 -0.184377 0.233747 -2
0.592015 0.00555637 -1 0.592015 0.00555637 -2
-1 -0.428025 0.670786 -2 -0.428025 0.670786
1 0.115316 0.430647 2 0.115316 0.430647
-0.873427 1 0.99144 -0.873427 2 0.99144
-0.348183 0.169474 1 -0.348183 0.169474 2
-1 0.253996 -0.917163 -2 0.253996 -0.917163
-0.270311 0.889501 -1 -0.270311 0.889501 -2
0.00853476 0.9671 -1 0.00853476 0.9671 -2
0.310977 -0.0955244 1 0.310977 -0.0955244 2
0.223359 -1 -0.789652 0.223359 -2 -0.789652
1 0.860695 -0.436895 2 0.860695 -0.436895
-0.301244 0.719361 1 -0.301244 0.719361 2
-1 0.0392729 0.478881 -2 0.0392729 0.478881
-0.106814 -0.0189854 -1 -0.106814 -0.0189854 -2
-1 -0.741003 -0.693583 -2 -0.741003 -0.693583
-0.633028 1 -0.698757 -0.633028 2 -0.698757
0.25446 1 -0.715905 0.25446 2 -0.715905
-0.409252 -1 -0.0135414 -0.409252 -2 -0.0135414
0.708483 1 0.530959 0.708483 2 0.530959
-0.775191 1 0.856748 -0.775191 2 0.856748
-0.213741 -1 0.575011 -0.213741 -2 0.575011
-0.0486217 0.854885 1 -0.0486217 0.854885 2
0.0453189 0.66546 -1 0.0453189 0.66546 -2
0.892757 -1 0.453244 0.892757 -2 0.453244
0.0916124 1 0.53838 0.0916124 2 0.53838
0.865729 1 -0.306323 0.865729 2 -0.306323
0.341754 0.139577 -1 0.341754 0.139577 -2
-1 -0.826563 0.743347 -2 -0.826563 0.743347
-0.0988701 -1 -0.808704 -0.0988701 -2 -0.808704
-0.715721 0.663391 -1 -0.715721 0.663391 -2
0.181839 1 0.57325 0.181839 2 0.57325
0.00885663 1 0.889517 0.00885663 2 0.889517
-1 0.100005 -0.783259 -2 0.100005 -0.783259
-0.0576984 -0.7954 1 -0.0576984 -0.7954 2
0.766517 0.625472 1 0.766517 0.625472 2
-1 0.207191 -0.258642 -2 0.207191 -0.258642
1 0.588493 0.590433 2 0.588493 0.590433
0.712225 -1 0.0711825 0.712225 -2 0.0711825
-1 -0.260207 -0.0374381 -2 -0.260207 -0.0374381
-0.512055 1 0.613903 -0.512055 2 0.613903
0.0914056 -0.253682 -1 0.0914056 -0.253682 -2
-1 0.845832 0.0988768 -2 0.845832 0.0988768
1 -0.773777 0.682381 2 -0.773777 0.682381
0.974621 1 -0.449946 0.974621 2 -0.449946
-0.549715 0.879846 -1 -0.549715 0.879846 -2
1 0.446164 0.130407 2 0.446164 0.130407
0.528574 0.64645 -1 0.528574 0.64645 -2
-0.601486 1 -0.829008 -0.601486 2 -0.829008
1 0.29478 0.631862 2 0.29478 0.631862
1 0.40042 0.956244 2 0.40042 0.956244
-0.820684 -1 -0.719413 -0.820684 -2 -0.719413
-0.958938 -0.68598 -1 -0.958938 -0.68598 -2
-0.364185 0.56703 -1 -0.364185 0.56703 -2
-1 0.0940307 -0.373462 -2 0.0940307 -0.373462
1 0.367246 0.550463 2 0.367246 0.550463
-1 -0.749049 0.956464 -2 -0.749049 0.956464
1 0.438861 0.594369 2 0.438861 0.594369
1 0.492539 -0.406578 2 0.492539 -0.406578
-0.903613 -0.922845 1 -0.903613 -0.922845 2
1 0.664245 -0.3735 2 0.664245 -0.3735
1 0.338292 -0.991061 2 0.338292 -0.991061
-1 0.524845 0.67001 -2 0.524845 0.67001
