0.403249 0.281196 0.152534 0.18561 -0.28126 -0.645135
0.423204 0.68692 0.122972 0.178032 1.2638 -0.656197
0.536561 0.475824 0.488226 1.2118 0.181558 1.16459
0.134792 0.525753 0.295023 0.738452 1.27231 0.574754
0.625904 0.28906 0.251683 1.18587 -0.53915 0.27422
0.454193 0.516296 0.440978 0.182424 0.62177 1.39754
0.503891 0.489324 0.451622 1.29066 0.289297 1.03556
0.473329 0.552535 0.498112 0.633879 1.26945 1.17653
0.443406 0.480159 0.471853 -0.172288 0.344761 -0.304412
0.684735 0.474415 0.131656 1.2535 0.488394 -0.690727
0.741865 0.564162 0.235205 0.794757 1.55058 0.0796827
0.845584 0.525895 0.390981 1.38523 1.34365 0.190854
0.688019 0.653408 0.234618 1.52739 1.17531 0.386549
0.597819 0.358067 0.10981 0.913201 -0.0397698 -0.751735
0.474315 0.242132 0.201792 0.488051 -0.610707 -0.320201
0.468621 0.459424 0.471683 0.497981 -0.223997 -0.257751
0.163103 0.497198 0.263945 0.910188 0.692361 0.899378
0.467332 0.475048 0.44635 0.667626 0.247214 1.39923
0.454183 0.555506 0.490564 0.361502 1.38421 1.04253
0.480746 0.736702 0.305491 0.56557 1.67442 0.642373
0.508135 0.691424 0.116741 0.533865 1.66661 -0.103128
0.392863 0.344491 0.105731 0.115025 -0.0967208 -0.747579
0.205667 0.472572 0.377205 0.194538 -0.417595 0.832705
0.552693 0.324168 0.111559 0.755686 -0.398876 -0.548745
0.7858 0.516666 0.209379 1.5686 0.686932 -0.389145
0.619771 0.671049 0.138431 0.969323 0.999069 -0.739189
0.855964 0.520341 0.379813 0.947297 1.49721 0.186463
0.75176 0.441723 0.219488 1.00328 -0.48595 -0.0564806
0.231877 0.538185 0.194604 -0.617944 0.42989 -0.321222
0.488843 0.470365 0.440709 0.689136 0.242531 1.39359
0.47918 0.611302 0.425259 0.458369 0.730835 1.41787
0.433417 0.500785 0.433769 0.277478 0.513379 1.42146
0.631378 0.675251 0.147945 1.22809 1.26522 -0.395998
0.180686 0.527836 0.366319 0.144406 1.04366 -0.489606
0.210217 0.488026 0.385128 0.224543 0.416901 1.38249
0.631644 0.593157 0.105121 0.907874 0.853477 -0.820044
0.564776 0.720347 0.311418 0.952494 1.55105 0.710925
0.724152 0.577038 0.192007 1.62101 0.762218 -0.209686
0.281453 0.528413 0.380446 -0.643903 0.581405 0.755823
0.631857 0.696144 0.283187 1.17106 1.51316 0.487493
0.772793 0.52529 0.308982 0.118544 0.525869 1.06526
0.369574 0.400487 0.419988 0.278102 0.311135 1.41178
0.543046 0.732878 0.300448 0.62787 1.6706 0.63733
0.477082 0.246817 0.252965 0.442454 -0.7223 0.49712
0.48323 0.303914 0.397719 0.552348 -0.618799 0.776962
0.81516 0.538711 0.317798 1.54509 1.22056 0.269871
0.728408 0.540809 0.188937 1.66358 0.594692 -0.161123
0.452087 0.287067 0.362407 0.521205 -0.635645 0.741649
0.763328 0.562869 0.234299 0.816219 1.54928 0.0787773
0.152746 0.49296 0.278505 1.03074 0.111086 0.567122
0.254867 0.422533 0.163899 -0.460896 0.117198 -0.464157
0.281407 0.432729 0.365234 -0.606446 0.207391 0.766408
0.839303 0.526929 0.37827 1.37895 1.34469 0.178143
0.827368 0.522491 0.395178 0.524456 1.31633 0.922495
0.22948 0.452968 0.221411 -0.756884 0.31489 0.13185
0.868623 0.476392 0.402848 0.94238 -0.444482 0.0200295
0.488072 0.523332 0.454343 0.497799 1.51373 0.592238
0.654936 0.456614 0.417014 1.11725 0.234015 1.27533
0.488997 0.5581 0.488524 0.649547 1.27502 1.16695
0.492361 0.528527 0.440871 0.672248 0.790415 1.38906
0.265893 0.54605 0.143468 -0.332691 0.6746 -0.64721
0.639217 0.603656 0.120748 1.13505 0.976818 0.9049
0.316576 0.688572 0.280863 -0.2453 1.4942 0.468623
0.801042 0.550602 0.283407 1.48764 1.2742 0.212722
0.72931 0.448356 0.185902 1.54044 0.301227 -0.380152
0.29401 0.542683 0.119966 -0.67987 0.723521 -0.0173532
0.715638 0.432797 0.28118 1.65582 0.248762 0.567858
0.70297 0.512437 0.144915 1.27173 0.526416 -0.677469
0.131755 0.516189 0.323936 1.05261 0.709919 0.662312
0.569234 0.381728 0.10222 0.591536 0.336175 -0.896493
0.379501 0.343717 0.411579 0.064819 -0.204005 1.18681
0.104169 0.48684 0.355414 -0.780583 0.0817729 0.585923
0.771786 0.511059 0.19524 1.38182 0.340354 -0.578528
0.775245 0.562556 0.236371 0.828136 1.54897 0.080849
0.846468 0.518939 0.364603 1.75895 0.585655 -0.0390279
0.240944 0.476503 0.361019 0.230871 -0.33044 -0.229525
0.221071 0.471736 0.366642 0.238442 -0.246475 -0.328966
0.373179 0.333054 0.125655 0.0404237 -0.0223501 -0.747822
0.580703 0.663862 0.119475 0.939175 1.39168 0.704099
0.719765 0.590923 0.231696 1.68609 0.802636 0.377982
0.583523 0.278315 0.290626 0.971696 -0.563867 0.664861
0.539757 0.29056 0.139913 0.746126 -0.210226 -0.700697
0.622923 0.628141 0.123649 0.972475 0.956161 -0.753971
0.775247 0.500701 0.311123 0.120998 0.501279 1.0674
0.140376 0.527366 0.277679 0.712 1.30795 0.530535
0.797067 0.541284 0.238068 1.44443 1.05004 -0.329458
0.269753 0.526951 0.365467 0.253575 1.34311 -0.212132
0.648645 0.684937 0.177391 1.24536 1.2749 -0.366551
0.517107 0.48562 0.468768 1.03298 0.295113 -0.366444
0.437278 0.315297 0.120761 0.201343 -0.484461 0.672778
0.666785 0.332976 0.270119 1.37352 -0.327489 0.523712
0.228402 0.543325 0.22294 -0.764247 0.613128 0.32181
0.313417 0.310233 0.26558 -0.362082 -0.419775 0.369446
0.242743 0.588039 0.265096 -0.725608 0.790972 0.410405
0.548563 0.68112 0.117672 0.884475 1.60142 -0.0828667
0.722785 0.570031 0.242098 1.6845 0.793877 0.400199
0.226784 0.527447 0.217056 -0.767339 0.564372 0.318826
0.382067 0.264978 0.190086 0.131501 -0.685262 0.00499204
0.725709 0.489432 0.174826 1.65556 0.52751 -0.19113
0.544352 0.68268 0.117778 0.880264 1.60298 -0.0827609
0.311174 0.57084 0.413777 -0.153065 0.718238 1.28714
0.731812 0.49789 0.181484 1.08064 0.332484 -0.740991
0.143017 0.526331 0.274906 0.714641 1.30691 0.527761
0.265384 0.494313 0.35132 -0.642115 0.421392 0.764996
0.547406 0.347087 0.417064 0.608696 0.0879714 1.38096
0.231422 0.565233 0.221501 -0.736929 0.768167 0.36681
0.456984 0.735655 0.307046 0.260712 1.65828 0.639058
0.309991 0.547876 0.107268 0.0545163 0.695291 -0.848243
0.354847 0.34044 0.383266 -0.217953 -0.380777 0.772814
0.485503 0.741129 0.164254 0.388988 1.49429 -0.486468
0.78755 0.491241 0.340687 -0.188099 0.520636 0.558048
0.447059 0.488387 0.467521 -0.168635 0.352989 -0.308745
0.224059 0.509738 0.357436 0.223634 0.665023 -0.630434
0.680197 0.574779 0.365143 1.52858 0.940846 0.747569
0.285672 0.503497 0.397639 -0.647866 0.591706 0.745096
0.260579 0.553837 0.328662 -0.640151 0.761898 0.70997
0.882939 0.484416 0.400897 1.18295 -0.0186054 -0.409635
0.891489 0.506342 0.40007 1.39784 0.607042 -0.456356
0.690791 0.529045 0.137729 1.23272 0.566405 -0.701863
0.166282 0.521839 0.25272 0.897316 0.681762 0.916055
0.229346 0.468449 0.23662 -0.765254 0.409004 0.321691
0.349 0.717658 0.253092 -0.212876 1.52329 0.440852
0.508733 0.513294 0.441094 0.73078 0.758354 1.38483
0.71608 0.589829 0.257621 1.6824 0.801542 0.403907
0.657776 0.573762 0.116582 1.51623 1.0044 0.395166
0.270097 0.553825 0.351152 -0.630633 0.761886 0.732459
0.324995 0.626191 0.394342 -0.330589 1.33384 0.657864
0.476987 0.309187 0.122365 0.540717 -0.504901 0.699599
0.51794 0.526857 0.472147 0.874874 1.12193 -0.247909
0.311866 0.5888 0.114498 -0.549097 1.07325 -0.0405688
0.599643 0.278274 0.181009 1.08774 -0.474766 -0.26023
0.50465 0.438383 0.492396 1.20378 -0.138341 0.915012
0.86017 0.510204 0.379446 1.60585 0.71299 -0.25525
0.663148 0.555962 0.410145 1.19531 0.65163 1.25136
0.721278 0.497742 0.290362 1.66161 0.475223 0.629887
0.393423 0.337136 0.412581 0.0787412 -0.210586 1.18781
0.236208 0.55406 0.269001 -0.732143 0.756993 0.414311
0.33195 0.63022 0.400824 -0.323634 1.33787 0.664346
0.264769 0.558752 0.146384 -0.333815 0.687302 -0.644294
0.461531 0.695184 0.397857 0.40504 1.59525 0.829928
0.442381 0.703849 0.133699 0.354106 1.31669 -0.651559
0.538043 0.492308 0.486345 1.37447 0.609264 -0.049111
0.240731 0.457568 0.171197 -0.754802 0.527428 0.107685
0.374204 0.34058 0.113968 -0.10678 -0.481428 -0.190921
0.193581 0.510377 0.386426 0.205394 0.742275 1.35909
0.123325 0.472274 0.323773 0.748604 -0.301494 0.222249
0.825433 0.522081 0.394684 0.522521 1.31592 0.922002
0.249315 0.515838 0.313144 -0.663728 0.567194 0.71776
0.848935 0.476658 0.380417 1.28927 -0.402349 0.197515
0.128861 0.529602 0.282278 -0.0852484 1.49723 0.148629
0.589347 0.659031 0.4064 0.917246 1.20217 1.17937
0.288006 0.446318 0.128351 -0.198134 0.239734 -0.720761
0.110891 0.529131 0.354988 0.103683 1.52899 0.369926
0.611671 0.379231 0.105893 1.01766 0.0312955 -0.739158
0.6934 0.397391 0.307179 1.51608 -0.00960979 0.704098
0.333943 0.319153 0.156195 -0.141418 -0.245305 -0.518652
0.432647 0.332816 0.418738 0.356939 0.237001 1.41125
0.52395 0.51162 0.499596 0.557787 0.513775 1.49902
0.595556 0.655363 0.118229 1.20131 1.44324 0.229146
0.527788 0.318832 0.109745 0.730781 -0.404212 -0.550558
0.370989 0.341237 0.406275 0.0240065 -0.186797 1.18138
0.721707 0.419692 0.238689 1.67786 0.187058 0.416618
0.800072 0.548388 0.30612 0.262274 1.36617 0.511091
0.665894 0.430053 0.127425 1.19989 0.193701 -0.684356
0.620694 0.385383 0.416984 1.08301 0.162784 1.2753
0.739632 0.560463 0.210985 0.792523 1.54688 0.0554627
0.344984 0.711421 0.267835 -0.216892 1.51705 0.455595
0.723336 0.550283 0.269901 1.68716 0.777758 0.408852
0.312104 0.30985 0.25435 -0.363395 -0.420158 0.358216
0.644788 0.555532 0.103664 1.15533 0.714368 -0.741391
0.289482 0.516259 0.117279 -0.684397 0.697097 -0.0200398
0.133569 0.527542 0.292525 0.705193 1.30813 0.54538
0.29354 0.457961 0.118013 -0.622745 0.234401 -0.214317
0.556969 0.281813 0.326043 0.945142 -0.560368 0.700278
0.288622 0.352675 0.162304 -0.444051 -0.196674 -0.239449
0.289069 0.602508 0.351249 -0.536098 0.991491 0.760873
0.391809 0.350483 0.102976 0.113971 -0.0907288 -0.750334
0.84647 0.516163 0.364148 1.75896 0.58288 -0.0394828
0.525265 0.305651 0.392824 0.786984 -0.547103 0.844836
0.720629 0.591537 0.225102 1.68695 0.80325 0.371388
0.367016 0.675592 0.133598 0.115051 1.11498 -0.728637
0.369957 0.741028 0.211928 0.107526 1.68326 0.420103
0.881021 0.51236 0.397983 1.0978 1.09457 -0.385623
0.288639 0.453968 0.389881 -0.545157 0.373807 0.936102
0.172701 0.528597 0.23607 0.473266 1.42612 0.558725
0.464563 0.249402 0.261449 0.429935 -0.719715 0.505605
0.744266 0.564765 0.247225 0.829972 1.49223 0.611192
0.63507 0.658336 0.344659 1.29816 1.28151 0.759348
0.809312 0.458081 0.310189 1.07382 -0.484637 0.513462
0.463274 0.449235 0.484206 0.264151 -0.343032 -0.0925633
0.811878 0.528012 0.366854 0.686757 1.49361 0.59481
0.357607 0.324362 0.13531 -0.0842036 -0.0807137 -0.665139
0.79949 0.463588 0.332623 0.123508 -0.200309 0.652451
0.812201 0.521448 0.245269 1.595 0.691714 -0.353255
0.0986716 0.507124 0.344797 -0.782519 0.582199 0.811559
0.435568 0.282238 0.353668 0.504686 -0.640474 0.73291
0.625846 0.296037 0.18003 1.17684 -0.415445 -0.256082
0.221679 0.470959 0.196117 0.165979 -0.52339 0.10574
0.511468 0.748753 0.181545 0.671209 1.67685 -0.154779
0.158729 0.484056 0.262216 0.739307 -0.031815 0.892142
0.25988 0.431876 0.317275 -0.625615 0.202809 0.721536
0.668407 0.538945 0.408753 1.20057 0.634614 1.24997
0.451648 0.455905 0.483741 0.0590941 -0.0947471 -0.25293
0.212547 0.471351 0.210675 0.441843 -0.455404 0.508245
0.302383 0.376243 0.140578 -0.227727 0.0736844 -0.651534
0.262674 0.632285 0.240541 -0.595056 1.12325 0.393017
0.665659 0.446214 0.114111 1.59732 0.296792 -0.21708
0.235403 0.577502 0.226774 -0.695684 0.934217 0.30313
0.463865 0.52895 0.463423 0.204011 1.15469 -0.272052
0.632177 0.68396 0.158266 1.22889 1.27393 -0.385677
0.233324 0.4908 0.179412 -0.148516 0.417601 -0.741913
0.231616 0.566 0.221723 -0.736735 0.768933 0.367033
0.528951 0.706622 0.364193 0.697201 1.60014 0.780499
0.433185 0.474715 0.483393 -0.391882 -0.0605535 0.302416
0.334011 0.455532 0.420201 0.2419 0.4042 1.41463
0.394136 0.303144 0.139544 0.176498 -0.259312 -0.658125
0.778323 0.54578 0.293082 0.383727 1.28791 0.834873
0.848302 0.498589 0.357711 1.60236 0.0818725 -0.149977
0.235308 0.496843 0.356118 0.217885 0.328449 -0.629448
0.288486 0.365441 0.313014 -0.465755 -0.164524 0.700643
0.47265 0.493128 0.5013 0.503874 0.493902 1.50081
0.446559 0.311321 0.11784 0.340469 -0.672491 -0.0265858
0.838095 0.525121 0.397221 0.687504 1.48999 0.612529
0.30608 0.588314 0.398996 -0.519086 0.977298 0.80862
0.325959 0.353924 0.365755 -0.24684 -0.367292 0.755302
0.527959 0.676678 0.41325 0.591973 1.16468 1.28374
0.579499 0.266152 0.256158 0.950516 -0.631837 0.492721
0.116098 0.473301 0.355669 -0.440713 -0.28909 0.685398
0.739445 0.471311 0.189137 1.08827 0.305906 -0.733339
0.675833 0.573309 0.135436 1.23185 0.794305 -0.665818
0.342573 0.307689 0.159705 -0.132787 -0.25677 -0.515142
0.462712 0.471759 0.461898 0.0233676 -0.165151 -0.171602
0.475086 0.726904 0.331727 0.570823 1.64393 0.718899
0.226199 0.4775 0.360165 0.231982 0.236081 -0.610239
0.240925 0.43822 0.267087 -0.699613 0.21489 0.523039
0.347552 0.361654 0.123781 0.0147963 0.0062503 -0.749696
0.336189 0.373278 0.411236 0.114165 0.168358 1.3645
0.138343 0.502266 0.324386 1.10099 0.289804 0.492252
0.128833 0.520951 0.328707 1.08463 0.807944 0.392614
0.692377 0.490705 0.365155 1.62281 0.489575 0.731607
0.705448 0.442629 0.32003 1.55824 0.118837 0.729787
0.383487 0.726014 0.29039 0.187215 1.64864 0.622402
0.77724 0.463407 0.300175 0.610352 -0.344793 0.864943
0.195847 0.514652 0.23208 0.630344 1.11858 0.900276
0.304993 0.542295 0.415309 -0.159245 0.689693 1.28867
0.712795 0.47987 0.312671 1.65312 0.457351 0.652196
0.371871 0.701388 0.33095 -0.0487192 1.49913 0.763046
0.52948 0.250229 0.256496 0.620103 -0.735301 0.399736
0.721623 0.415315 0.233418 1.67777 0.182681 0.411346
0.607976 0.683958 0.343041 1.04279 1.47435 0.774563
0.306958 0.416596 0.112393 -0.587542 0.0333927 0.342664
0.210378 0.490755 0.357598 0.192955 0.322361 -0.627967
0.487499 0.557119 0.489915 0.648049 1.27403 1.16834
0.70102 0.430495 0.150077 1.22841 0.201956 -0.668235
0.774813 0.541466 0.296434 0.380216 1.2836 0.838225
0.819134 0.463413 0.322136 1.08364 -0.479305 0.525409
0.109594 0.473575 0.34532 -0.447217 -0.288816 0.675049
0.823172 0.476151 0.290197 1.76731 0.175895 0.154378
0.699009 0.37415 0.25555 1.54426 -0.110249 0.481189
0.470333 0.540458 0.434463 0.350439 1.09479 1.25808
0.198108 0.486779 0.227204 0.710581 0.327315 1.07097
0.707812 0.377193 0.206911 1.61568 -0.000582696 0.0250694
0.365542 0.735658 0.187294 0.0691215 1.39807 -0.500706
0.497104 0.523451 0.459004 0.854037 1.11853 -0.261052
0.691942 0.366172 0.264893 1.53719 -0.118227 0.490533
0.303939 0.559245 0.11064 0.0484639 0.70666 -0.844871
0.281996 0.627321 0.154892 -0.287306 1.155 -0.475542
0.230714 0.563593 0.219076 -0.737637 0.766526 0.364385
0.736277 0.557452 0.261383 0.512312 1.2695 0.926838
0.814076 0.53118 0.354644 0.688955 1.49678 0.5826
0.777998 0.552823 0.275982 0.570668 1.49811 0.527871
0.329092 0.698524 0.275617 -0.232784 1.50416 0.463377
0.853264 0.478511 0.381936 1.2936 -0.400496 0.199033
0.689582 0.356658 0.253314 1.53483 -0.12774 0.478954
0.491308 0.523102 0.455033 0.613741 1.51356 0.391773
0.253042 0.583981 0.166252 -0.559814 0.7597 -0.389076
0.454993 0.484368 0.44496 0.00450909 0.604409 1.32964
0.515279 0.708267 0.365932 0.611015 1.62529 0.753104
0.775881 0.498709 0.311673 0.121631 0.499287 1.06795
0.569666 0.711673 0.324709 0.957383 1.54238 0.724216
0.120531 0.470116 0.323078 -0.117747 -0.499578 0.269072
0.491113 0.55198 0.49449 0.651664 1.2689 1.17291
0.811988 0.51538 0.390406 0.103267 0.914119 0.972404
0.169017 0.528183 0.225309 -0.0437954 1.48341 0.0197449
0.514563 0.274348 0.1463 0.594317 -0.619233 -0.29546
0.256456 0.456901 0.322422 -0.679056 0.466456 0.675587
0.43033 0.490175 0.480917 -0.414459 0.292341 -0.0162679
0.285517 0.613257 0.144921 -0.135418 0.903107 -0.714614
0.391242 0.34261 0.415166 0.217951 -0.0508553 1.31803
0.221935 0.522551 0.361386 0.185655 1.03838 -0.494539
0.621156 0.630839 0.119232 1.11699 1.004 0.903384
0.434405 0.738661 0.170046 0.276765 1.52035 -0.433372
0.844404 0.503554 0.353848 1.61889 0.825093 -0.190936
0.741038 0.55668 0.263812 0.517073 1.26873 0.929267
0.134509 0.505443 0.336616 0.984344 0.986405 0.552153
0.233378 0.482275 0.276724 -0.708866 0.265865 0.532348
0.441214 0.508927 0.471083 -0.13456 0.719347 -0.318986
0.722379 0.583401 0.190982 1.61923 0.76858 -0.210711
0.113412 0.471442 0.307989 -0.0290601 -0.518252 0.293593
0.652382 0.414736 0.407529 1.1147 0.192136 1.26585
0.371516 0.649853 0.108702 0.187365 1.06895 -0.780368
0.46495 0.525543 0.443015 0.193181 0.631018 1.39958
0.656778 0.438417 0.110115 0.987284 0.261953 -0.817045
0.826354 0.517665 0.299512 1.77813 0.791572 0.161338
0.541252 0.638278 0.419728 0.579168 0.771866 1.41004
0.200158 0.524211 0.20119 -0.199598 1.08726 -0.522114
0.86159 0.474956 0.404949 0.935347 -0.445919 0.0221303
0.506286 0.691778 0.118095 0.532016 1.66697 -0.101775
0.214188 0.52659 0.213335 0.608807 0.92943 1.03917
0.550104 0.697312 0.373554 0.937822 1.52802 0.773061
0.498039 0.321111 0.412497 0.539826 -0.10509 1.31616
0.846583 0.525595 0.392451 1.38623 1.34335 0.192324
0.116203 0.527885 0.290123 -0.0979065 1.49551 0.156475
0.817002 0.464001 0.293869 1.67947 -0.0249258 0.163133
0.291318 0.321747 0.202438 -0.366172 -0.426946 0.287086
0.83293 0.48832 0.331133 1.77707 0.188063 0.195313
0.110932 0.476768 0.284954 -0.402051 -0.331049 -0.00535568
0.372255 0.341067 0.120862 -0.175242 -0.281919 0.679553
0.465145 0.526795 0.442904 0.345251 1.08113 1.26652
0.235597 0.56948 0.243391 -0.732754 0.772413 0.388701
0.202689 0.513381 0.228779 0.637187 1.11731 0.896976
0.714753 0.567164 0.289156 1.61488 0.772633 0.673274
0.50662 0.504166 0.451534 1.28515 0.897391 0.940689
0.802517 0.460602 0.332822 0.126535 -0.203295 0.652649
0.655573 0.418993 0.1156 1.43736 -0.0857514 -0.250524
0.357976 0.283596 0.17215 0.0237036 -0.356059 -0.520023
0.244791 0.50891 0.386154 0.256604 0.740808 1.35882
0.250468 0.480926 0.152223 -0.464068 0.304566 -0.524781
0.495242 0.475318 0.45691 1.18959 -0.171459 0.141386
0.474241 0.476478 0.449498 0.197777 -0.396174 0.0469463
0.530551 0.52928 0.491753 1.31903 1.0521 0.167782
0.426237 0.509873 0.48735 -0.559527 0.567098 0.329256
0.346234 0.627458 0.109201 -0.0855273 1.06113 -0.681691
0.672641 0.324966 0.232938 1.37938 -0.335499 0.48653
0.256097 0.541592 0.324599 -0.652048 0.513399 0.742305
0.215427 0.507173 0.22054 0.727899 0.347709 1.06431
0.262161 0.630878 0.242188 -0.595569 1.12185 0.394663
0.39445 0.646394 0.418481 0.361882 0.768432 1.41047
0.361432 0.674254 0.134548 0.109467 1.11364 -0.727687
0.554633 0.691333 0.130501 0.773843 1.31529 -0.61958
0.133871 0.522015 0.306988 0.737531 1.26857 0.58672
0.15977 0.496582 0.268052 0.906855 0.691745 0.903486
0.701031 0.416661 0.153947 1.22842 0.188122 -0.664365
0.28274 0.463197 0.38223 -0.551057 0.383037 0.928451
0.134998 0.49061 0.33261 1.13417 0.524497 0.310216
0.475491 0.308267 0.117393 0.369402 -0.675545 -0.027033
0.258811 0.524144 0.361437 0.268929 1.35593 -0.193564
0.117624 0.529512 0.329646 0.189116 1.5265 0.299645
0.816497 0.477063 0.38715 0.257994 -0.145735 0.935052
0.107259 0.529006 0.338556 -0.76074 1.02516 0.318329
0.471624 0.461424 0.46993 0.500984 -0.221997 -0.259504
0.795242 0.452222 0.300052 0.119261 -0.211675 0.619879
0.534784 0.699254 0.131289 0.753995 1.32321 -0.618792
0.658804 0.483618 0.103079 1.31605 0.387517 -0.644445
0.330016 0.38058 0.116923 -0.420266 -0.180024 -0.233506
0.157299 0.522603 0.355468 0.245968 0.630373 -0.634746
0.445898 0.495455 0.466942 -0.186813 0.317703 -0.28677
0.143802 0.518639 0.37635 -0.0623673 0.885557 1.28347
0.695747 0.410707 0.152205 1.22313 0.182168 -0.666107
0.459563 0.262742 0.307509 0.438906 -0.635779 0.745953
0.828501 0.472451 0.381182 0.928848 -0.522095 0.352742
0.654917 0.676294 0.174898 1.25163 1.26626 -0.369045
0.170286 0.527673 0.365063 0.350691 1.46284 0.0602259
0.448557 0.495251 0.440206 -0.00192707 0.615293 1.32488
0.772076 0.488472 0.200452 1.38211 0.317767 -0.573316
0.765264 0.540759 0.206207 1.21416 1.18055 -0.417621
0.484032 0.459903 0.439219 0.684326 0.232069 1.3921
0.277048 0.608324 0.147405 -0.143888 0.898174 -0.71213
0.33472 0.374222 0.117021 -0.415562 -0.186382 -0.233407
0.51824 0.346649 0.103925 0.545874 0.247289 -0.890743
0.248987 0.393424 0.244473 -0.682502 0.078796 0.42706
0.197387 0.504952 0.356799 0.181137 0.717169 -0.620288
0.189881 0.513172 0.237189 0.702353 0.353708 1.08096
0.489254 0.523065 0.456174 0.498981 1.51346 0.59407
0.565733 0.265525 0.275369 0.936749 -0.632464 0.511932
0.244736 0.589366 0.27185 -0.655995 0.797427 0.653158
0.460785 0.755039 0.246202 0.551158 1.72575 0.468822
0.720331 0.417328 0.243016 1.67678 0.185384 0.420237
0.532387 0.488839 0.498056 1.20762 0.194573 1.17442
0.530283 0.516908 0.434486 0.777964 0.766199 1.37071
0.817528 0.533305 0.277098 1.54751 1.21508 0.228996
0.53443 0.316385 0.118503 0.831255 -0.632045 0.00725502
0.463202 0.481348 0.452788 -0.453696 0.331299 0.82263
0.26702 0.529067 0.368534 0.250842 1.34523 -0.209064
0.803889 0.533289 0.341385 0.536962 1.40282 0.756911
0.402729 0.356093 0.418703 0.32702 0.260279 1.41122
0.475107 0.329317 0.416885 0.536398 0.070202 1.38078
0.776819 0.44286 0.267588 0.893617 -0.537993 0.423428
0.509348 0.458875 0.499417 0.4903 0.196743 1.46426
0.799 0.497795 0.386194 0.00423636 0.914601 0.827356
0.616836 0.68386 0.334292 1.05165 1.47425 0.765815
0.129399 0.472952 0.305248 0.777668 -0.249782 0.544837
0.124823 0.526674 0.26971 -0.136903 1.4714 0.0722271
0.463952 0.237794 0.208608 0.477688 -0.615045 -0.313385
0.741293 0.488548 0.287485 0.704465 0.294137 1.26771
0.431036 0.284885 0.144252 0.284463 -0.253651 -0.685505
0.2274 0.515109 0.225345 -0.770066 0.486452 0.290456
0.663045 0.559306 0.1227 1.21906 0.780302 -0.678554
0.303031 0.612556 0.369832 -0.522136 1.00154 0.779456
0.135123 0.493635 0.342789 1.1343 0.527521 0.320395
0.24736 0.420541 0.275305 -0.693179 0.197211 0.531257
0.461912 0.517492 0.454105 -0.226968 1.09235 0.0125341
0.231034 0.472186 0.258975 -0.763566 0.412741 0.344045
0.332159 0.287889 0.22019 -0.325332 -0.460804 0.304837
0.130435 0.523534 0.338055 0.428825 1.32237 -0.184277
0.467901 0.453904 0.496534 0.344803 0.0660206 1.40999
0.659167 0.380935 0.357206 1.45521 -0.0476281 0.784586
0.233664 0.437066 0.239398 -0.706874 0.213736 0.49535
0.85215 0.482177 0.372671 1.55882 0.35734 -0.32377
0.15076 0.49957 0.282511 1.01334 0.399507 0.778436
0.570424 0.672346 0.114025 0.906336 1.59264 -0.0865134
0.720265 0.421735 0.249139 1.67671 0.189791 0.42636
0.340353 0.60237 0.104677 -0.0582938 0.780246 -0.795013
0.475493 0.751315 0.256471 0.565866 1.72202 0.479091
0.539895 0.259107 0.174425 0.542191 -0.611595 -0.31738
0.233006 0.479997 0.186934 0.315238 -0.20251 -0.539304
0.253314 0.513803 0.32251 -0.664596 0.541437 0.718336
0.100118 0.510662 0.346959 -0.781073 0.585736 0.813721
0.232511 0.534506 0.270423 -0.760138 0.604308 0.369293
0.72799 0.524873 0.283341 0.453932 0.595762 1.24244
0.112442 0.529456 0.315442 0.183934 1.52645 0.285442
0.300378 0.553986 0.410883 -0.16386 0.701384 1.28424
0.49095 0.737113 0.158897 0.602138 1.57153 -0.3809
0.106731 0.525211 0.303733 -0.770238 1.00102 0.236436
0.265997 0.438441 0.334393 -0.619498 0.209374 0.738654
0.461678 0.480218 0.448399 -0.107147 -0.0582628 1.07007
0.696866 0.375214 0.265859 1.54211 -0.109185 0.491499
0.610854 0.374297 0.419045 1.2181 -0.110241 1.04871
0.657243 0.4292 0.120167 1.42655 0.074519 0.651545
0.258037 0.375528 0.245246 -0.57464 -0.141065 0.444699
0.486199 0.471535 0.441544 0.686493 0.2437 1.39442
0.827467 0.497144 0.295463 1.79954 0.575853 0.0743583
0.824269 0.52925 0.36905 0.673679 1.49411 0.584358
0.478829 0.737796 0.302353 0.514789 1.69299 0.596146
0.333041 0.420811 0.105161 0.159386 0.347572 -0.876919
0.740502 0.452246 0.194205 0.814887 -0.427924 -0.274589
0.686503 0.587434 0.148054 1.28049 0.834258 -0.617622
0.116906 0.470848 0.319435 -0.0572525 -0.513851 0.325633
0.72696 0.491073 0.178174 1.65681 0.529152 -0.187782
0.107385 0.472553 0.3228 -0.0667737 -0.512145 0.328997
0.495314 0.555264 0.484586 0.878688 1.17183 -0.203071
0.619059 0.391113 0.105677 0.988851 0.167603 -0.796153
0.107179 0.529232 0.348101 0.102018 1.52906 0.366007
0.642675 0.672191 0.157017 1.23939 1.26216 -0.386926
0.641571 0.561673 0.417536 0.748761 0.615153 1.41034
0.775272 0.545861 0.218642 1.22417 1.18565 -0.405186
0.418576 0.749407 0.235294 0.156144 1.69163 0.44347
0.620413 0.61941 0.414361 0.988402 1.05693 1.23482
0.495623 0.555803 0.489383 0.656173 1.27272 1.1678
0.439114 0.46355 0.489388 -0.385953 -0.0717185 0.308411
0.807352 0.453213 0.27055 1.66982 -0.0357139 0.139814
0.355347 0.711712 0.168845 -0.135894 1.35881 -0.414209
0.815966 0.520024 0.392068 0.107245 0.918763 0.974067
0.474176 0.524248 0.44874 0.483903 1.51465 0.586636
0.694138 0.436598 0.143937 1.22152 0.208059 -0.674375
0.672727 0.390515 0.341553 1.46877 -0.0380486 0.768934
0.818761 0.516684 0.397759 0.11004 0.915423 0.979758
0.683529 0.573092 0.359155 1.58366 0.778562 0.743274
0.345285 0.634579 0.122449 -0.396611 1.29912 0.211752
0.251414 0.586705 0.169496 -0.561442 0.762425 -0.385831
0.125649 0.471228 0.310243 0.780486 -0.243942 0.554623
0.290772 0.523334 0.11745 -0.683108 0.704171 -0.0198694
0.280435 0.345734 0.261586 -0.552242 -0.170858 0.461039
0.271165 0.535336 0.137735 -0.327419 0.663886 -0.652943
0.29767 0.445057 0.115304 -0.618614 0.221497 -0.217025
0.180496 0.529703 0.22573 0.481061 1.42723 0.548386
0.680519 0.547774 0.379384 1.58167 0.742116 0.766884
0.572229 0.292354 0.333935 0.960402 -0.549828 0.708169
0.513159 0.497635 0.442209 0.911746 0.275151 1.33195
0.562676 0.285789 0.150785 0.841155 -0.443386 -0.474317
0.467795 0.242367 0.201237 0.48153 -0.610472 -0.320756
0.382435 0.697737 0.347974 -0.0381547 1.49548 0.78007
0.383994 0.339207 0.111351 0.106156 -0.102005 -0.741959
0.467785 0.308669 0.120314 0.361695 -0.675143 -0.0241121
0.480644 0.50894 0.501038 0.511868 0.509714 1.50055
0.606578 0.586404 0.103178 0.658437 0.660183 -0.892748
0.838614 0.493468 0.347525 1.59267 0.0767512 -0.160164
0.292789 0.458462 0.119747 -0.623496 0.234901 -0.212583
0.316459 0.419306 0.414721 -0.296472 0.150766 1.15782
0.50762 0.541684 0.433885 0.755301 0.790974 1.3701
0.575449 0.3321 0.118574 1.13668 -0.47607 -0.059983
0.526336 0.519208 0.434918 0.774017 0.768498 1.37114
0.467954 0.308999 0.117944 0.361865 -0.674813 -0.0264827
0.70243 0.370489 0.193969 1.6103 -0.00728714 0.0121266
0.615968 0.639787 0.11739 1.22173 1.42767 0.228307
0.640263 0.608848 0.114032 1.10558 0.88624 -0.726526
0.6596 0.406484 0.389075 1.4146 -0.152861 0.731296
0.45995 0.50885 0.445916 -0.22893 1.08371 0.00434501
0.103228 0.480459 0.316073 -0.784019 0.0220506 0.264558
0.835322 0.525986 0.36368 1.37497 1.34374 0.163553
0.4964 0.551953 0.493267 0.656951 1.26887 1.17169
0.653917 0.586846 0.404747 1.41823 1.06293 0.839691
0.713643 0.444741 0.295388 1.65383 0.260705 0.582066
0.534294 0.291929 0.361708 0.796013 -0.560825 0.813719
0.795163 0.555462 0.280207 0.587834 1.50075 0.532096
0.16877 0.523664 0.249539 0.899804 0.683587 0.912874
0.749798 0.55168 0.272111 0.525833 1.26373 0.937566
0.133891 0.492019 0.37634 -0.206196 0.520421 1.31631
0.247639 0.441593 0.2947 -0.692899 0.218263 0.550652
0.653234 0.583693 0.115228 1.51169 1.01433 0.393812
0.153642 0.513878 0.274395 0.854168 1.02673 0.770623
0.669237 0.457313 0.402087 1.58822 0.266526 0.747152
0.519442 0.522089 0.470468 0.977452 0.776663 -0.381247
0.460293 0.487869 0.448222 -0.456605 0.337821 0.818064
0.339726 0.709152 0.261837 -0.22215 1.51478 0.449597
0.767165 0.450365 0.206639 1.40511 -0.137428 -0.290881
0.690254 0.565095 0.347672 1.59039 0.770564 0.731791
0.663506 0.471014 0.108834 1.32075 0.374913 -0.63869
0.323528 0.592558 0.415253 -0.0711583 0.959216 1.25774
0.866357 0.476662 0.401764 0.940114 -0.444213 0.0189449
0.726176 0.45316 0.270477 0.44628 -0.031103 1.09942
0.635494 0.296583 0.19133 1.18649 -0.4149 -0.244782
0.464144 0.522935 0.457709 -0.224736 1.09779 0.0161385
0.178245 0.526368 0.236512 0.515007 1.38986 0.611966
0.576499 0.656357 0.413728 0.904398 1.19949 1.1867
0.0935113 0.498805 0.335533 -0.791241 0.0937378 0.566041
0.479655 0.68722 0.11076 0.487493 1.14225 -0.779679
0.715429 0.594473 0.253148 1.60568 0.999212 0.462061
0.147617 0.47978 0.276554 0.795886 -0.242954 0.516143
0.48389 0.536694 0.500898 0.517727 0.538849 1.50032
0.696482 0.474105 0.354679 1.62692 0.472975 0.721131
0.238869 0.564799 0.180928 -0.573987 0.740518 -0.3744
0.640548 0.392871 0.119531 1.42233 -0.111873 -0.246594
0.81026 0.541627 0.284738 1.54024 1.2234 0.236636
0.690255 0.385177 0.301173 1.51294 -0.021824 0.698092
0.317336 0.641788 0.140133 -0.120209 0.99955 -0.684828
0.346473 0.619785 0.414153 -0.0482131 0.986444 1.25664
0.685166 0.431206 0.352207 1.52817 0.115493 0.787718
0.263663 0.461164 0.341397 -0.671849 0.470719 0.694563
0.808653 0.524608 0.241527 1.59145 0.694874 -0.356997
0.712562 0.605481 0.24404 1.60281 1.01022 0.452952
0.630465 0.387176 0.111651 1.03646 0.0392407 -0.7334
0.46871 0.446184 0.493365 0.345612 0.0583004 1.40682
0.715116 0.480046 0.306253 1.65544 0.457528 0.645777
0.301013 0.451412 0.110177 -0.222507 0.368556 -0.737797
0.443305 0.557357 0.431003 0.422494 0.676891 1.42362
0.669771 0.467557 0.116048 1.60143 0.318135 -0.215142
0.296432 0.551644 0.120081 -0.588778 0.889675 0.439671
0.128531 0.529285 0.357879 0.119837 1.52908 0.339576
0.717283 0.45161 0.167822 1.52841 0.30448 -0.398232
0.380742 0.275271 0.282081 0.0317504 -0.631773 0.517615
0.513256 0.515777 0.465255 0.971266 0.770351 -0.38646
0.71721 0.554229 0.165993 1.61407 0.739409 -0.2357
0.712005 0.476301 0.156498 1.53236 0.403398 -0.410697
0.230235 0.516892 0.254596 -0.763888 0.553817 0.356366
0.131615 0.475339 0.306455 0.779884 -0.247395 0.546044
0.478825 0.756038 0.228847 0.492074 1.75492 0.274264
0.273647 0.475693 0.134323 -0.335544 0.350041 -0.648682
0.68147 0.499716 0.391798 1.56202 0.36138 0.845115
0.328309 0.367074 0.129866 -0.113502 -0.0380015 -0.670582
0.654323 0.464744 0.104229 0.984828 0.288281 -0.822932
0.73491 0.439182 0.248869 0.798702 -0.476411 0.645885
0.270329 0.647608 0.230679 -0.545069 1.22094 0.310767
0.171213 0.474916 0.360198 0.239835 -0.328876 -0.230741
0.419512 0.7202 0.150022 0.261872 1.50189 -0.453397
0.526305 0.477403 0.499152 1.20154 0.183137 1.17551
0.887392 0.496333 0.39647 1.39375 0.597033 -0.459955
0.127649 0.472427 0.347566 0.767605 -0.287598 0.234354
0.688141 0.453514 0.36262 1.53114 0.137801 0.798132
0.290285 0.414656 0.37322 -0.500416 -0.0232846 0.801006
0.55792 0.729987 0.16569 0.790017 1.38746 -0.551152
0.509979 0.466649 0.435886 0.908565 0.244165 1.32562
0.126236 0.529243 0.354907 0.119028 1.52911 0.369844
0.663681 0.597682 0.375729 1.42799 1.07377 0.810673
0.457657 0.727815 0.152974 0.361143 1.48097 -0.497748
0.149758 0.484167 0.275959 1.02775 0.102294 0.564576
0.220007 0.481506 0.359131 0.225791 0.240086 -0.611272
0.289497 0.514768 0.115211 -0.684383 0.695606 -0.0221079
0.58601 0.735161 0.215648 0.984229 1.63396 0.0324015
0.786613 0.525546 0.331841 -0.189036 0.554941 0.549202
0.167487 0.482062 0.252511 0.748064 -0.0338093 0.882437
0.440824 0.246966 0.190139 0.12085 -0.673994 -0.0322296
0.452648 0.723908 0.149195 0.356133 1.47707 -0.501527
0.230467 0.532777 0.251099 -0.763656 0.569702 0.352869
0.470557 0.464723 0.466796 0.499917 -0.218698 -0.262638
0.629205 0.380944 0.113981 1.36132 -0.168912 -0.288098
0.65969 0.432754 0.112231 0.990196 0.25629 -0.814929
0.588452 0.662444 0.125152 0.817422 1.06814 -0.759714
0.829524 0.525519 0.329515 1.34314 1.37835 0.235319
0.244136 0.604032 0.209327 -0.686951 0.960747 0.285682
0.115463 0.50374 0.26351 -0.635531 0.85473 -0.295788
0.452677 0.454525 0.431837 0.388245 0.359019 1.42518
0.219125 0.483974 0.217502 0.628751 0.468983 1.12963
0.455838 0.494537 0.457634 -0.423553 0.0710806 0.240021
0.567307 0.671214 0.407189 0.895205 1.21435 1.18016
0.618238 0.642672 0.393777 1.25892 1.28027 0.821568
0.4899 0.55761 0.483672 0.873274 1.17417 -0.203986
0.78466 0.488897 0.328035 -0.190988 0.518292 0.545396
0.522724 0.718571 0.143833 0.741935 1.34253 -0.606248
0.733916 0.440638 0.252389 0.797708 -0.474954 0.649404
0.396427 0.341698 0.106015 0.118589 -0.0995134 -0.747295
0.816448 0.534685 0.280263 1.54643 1.21646 0.232162
0.116903 0.486015 0.370375 -0.223184 0.514418 1.31034
0.516505 0.540679 0.432271 0.623712 0.60592 1.42436
0.618028 0.511637 0.421777 0.724514 0.5388 1.41572
0.276182 0.407266 0.339369 -0.61167 0.181928 0.740543
0.237789 0.58551 0.218455 -0.693299 0.942225 0.29481
0.171547 0.521609 0.38089 0.150353 0.948787 1.28481
0.295904 0.326246 0.264226 -0.379596 -0.403762 0.368092
0.286317 0.662344 0.180787 -0.481899 1.14793 -0.236408
0.411931 0.329578 0.413458 0.238641 -0.0638865 1.31632
0.547838 0.747293 0.235171 0.790886 1.69432 0.445103
0.102414 0.482395 0.312864 -0.784833 0.0239871 0.261349
0.723007 0.411818 0.215435 1.70172 0.216729 0.27923
0.530429 0.748391 0.245016 0.655542 1.7118 0.482057
0.0986689 0.488565 0.322468 -0.788579 0.0301567 0.270953
0.459734 0.476895 0.443742 -0.109091 -0.0615853 1.06541
0.625131 0.373807 0.116323 1.35724 -0.17605 -0.285756
0.219706 0.484672 0.358473 0.202283 0.316278 -0.627093
0.44705 0.732316 0.310452 0.250777 1.65495 0.642464
0.120837 0.529195 0.356598 0.112143 1.52899 0.338294
0.461685 0.463269 0.433725 -0.107139 -0.0752115 1.0554
0.860736 0.500666 0.375361 1.63522 0.822205 -0.169423
0.111635 0.471842 0.32924 -0.0625236 -0.512857 0.335438
0.49619 0.523025 0.500511 0.530027 0.52518 1.49994
0.859935 0.481644 0.382937 1.30027 -0.397363 0.200034
0.469333 0.577909 0.429074 0.448522 0.697442 1.42169
0.534165 0.47218 0.489032 1.2094 0.177914 1.16539
0.493914 0.256247 0.179178 0.577645 -0.629524 -0.277329
0.647815 0.678778 0.169801 1.24453 1.26874 -0.374141
0.767311 0.563756 0.241281 0.820203 1.55017 0.0857587
0.434471 0.688849 0.119301 0.391165 1.60403 0.520013
0.102688 0.520183 0.320869 -0.774281 0.995995 0.253572
0.18359 0.528677 0.225702 0.484155 1.4262 0.548357
0.139404 0.47938 0.29757 0.787673 -0.243353 0.537159
0.390694 0.747355 0.201247 0.252987 1.73782 0.204859
0.435615 0.263456 0.307961 0.504733 -0.659257 0.687203
0.492088 0.698025 0.126446 0.451334 1.24448 -0.71005
0.550087 0.747532 0.231486 0.793135 1.69456 0.441419
0.808298 0.453324 0.276374 1.67077 -0.0356029 0.145638
0.635288 0.294583 0.221487 1.19525 -0.533627 0.244024
0.585724 0.356873 0.417093 0.672712 0.0547563 1.36639
0.412156 0.25179 0.211416 0.0921813 -0.669171 -0.010953
0.241766 0.485314 0.17647 -0.609347 0.530466 -0.346568
0.34106 0.569123 0.419903 0.214946 0.618415 1.41069
0.661175 0.428948 0.113838 1.44296 -0.0757969 -0.252286
0.215431 0.519849 0.216029 0.61005 0.922689 1.04186
0.425384 0.254338 0.26014 0.18296 -0.698097 0.444794
0.619904 0.641359 0.393239 1.26058 1.27895 0.82103
0.489465 0.341291 0.10366 0.517099 0.241932 -0.891007
0.46914 0.462616 0.43998 -0.0996847 -0.0758646 1.06165
0.820686 0.527924 0.372486 0.670095 1.49279 0.587794
0.666977 0.417538 0.131755 1.19436 0.188999 -0.686557
0.487861 0.474845 0.45396 0.423383 -0.492736 0.698153
0.634853 0.611614 0.11195 1.10017 0.889006 -0.728608
0.514802 0.486641 0.43857 0.968095 0.268252 1.30276
0.208903 0.480845 0.221411 0.31345 -0.220329 0.926694
0.289859 0.644008 0.306611 -0.526359 1.08385 0.681206
0.169965 0.506512 0.253016 0.91705 0.701675 0.88845
0.269546 0.360323 0.186636 -0.463127 -0.189027 -0.215117
0.215614 0.473847 0.379535 0.220522 -0.357796 0.934824
0.527462 0.453025 0.43085 0.636907 0.294066 1.41205
0.379358 0.675474 0.129931 0.127393 1.11486 -0.732304
0.268708 0.419 0.329417 -0.619145 0.193662 0.730592
0.659636 0.325787 0.27132 1.36637 -0.334678 0.524912
0.839477 0.475575 0.362852 1.27981 -0.403432 0.17995
0.725645 0.489818 0.174702 1.6555 0.527897 -0.191253
0.679697 0.449363 0.130882 1.21369 0.213011 -0.680899
0.527525 0.316056 0.112705 0.730518 -0.406988 -0.547599
0.221694 0.515342 0.186672 -0.0920211 0.701626 -0.744393
0.522787 0.467841 0.480262 0.964602 -0.0729535 -0.235518
0.522386 0.539159 0.431735 0.629593 0.6044 1.42383
0.422438 0.314582 0.113347 0.316348 -0.66923 -0.0310788
0.473272 0.398395 0.0993166 0.495574 0.352842 -0.899396
0.291398 0.491152 0.416199 -0.643581 0.576234 0.760548
0.301333 0.600478 0.133262 -0.131324 0.830755 -0.738391
0.687021 0.47703 0.374092 1.56757 0.338693 0.827409
0.235245 0.528911 0.371492 0.187533 1.45593 -0.000469683
0.458741 0.493322 0.446586 -0.458157 0.343274 0.816428
0.186803 0.528856 0.372003 0.195301 1.5107 0.561527
0.463473 0.308938 0.121647 0.357384 -0.674874 -0.0227793
0.132017 0.524163 0.305253 0.735677 1.27072 0.584984
0.319219 0.307231 0.177826 -0.347583 -0.294102 -0.262369
0.577747 0.333663 0.118722 1.13898 -0.474507 -0.0598354
0.428318 0.531654 0.494743 0.11887 0.542891 1.44559
0.230938 0.462812 0.194771 -0.744554 0.276101 0.0783518
0.703598 0.496219 0.145073 1.27236 0.510198 -0.677311
0.666469 0.580584 0.130945 1.22248 0.80158 -0.670309
0.121408 0.469083 0.337742 -0.11687 -0.500611 0.283736
0.7381 0.463718 0.189989 1.08693 0.298313 -0.732486
0.145071 0.52859 0.368948 0.0930598 1.50662 0.570837
0.555868 0.670743 0.110688 0.714828 1.04899 -0.801268
0.499964 0.444902 0.495436 0.480916 0.18277 1.46028
0.182875 0.495612 0.20336 -0.387279 0.292755 -0.592739
0.567467 0.330053 0.410177 0.663327 -0.0297466 1.33827
0.154336 0.474578 0.378397 0.0539888 -0.437057 0.77696
0.173625 0.497015 0.25163 0.920709 0.692179 0.887064
0.487249 0.556062 0.491091 0.6478 1.27298 1.16951
0.335697 0.677532 0.148426 -0.233606 1.20521 -0.482008
0.482858 0.303811 0.12664 0.538424 -0.176099 -0.748917
0.408378 0.253087 0.231362 0.165955 -0.699348 0.416016
0.171731 0.480544 0.355515 0.306128 0.388483 -0.631128
0.413643 0.321451 0.409706 0.0989609 -0.226271 1.18493
0.601795 0.708748 0.165973 1.04131 1.45628 -0.33205
0.639181 0.595058 0.108882 1.10449 0.87245 -0.731675
0.13388 0.505285 0.339451 0.983715 0.986247 0.554988
0.453079 0.482332 0.463802 -0.162615 0.346933 -0.312463
0.731378 0.541405 0.276905 0.507413 1.25345 0.94236
0.173492 0.499093 0.209193 -0.396663 0.296236 -0.586905
0.817491 0.475952 0.3869 0.258988 -0.146846 0.934803
0.243644 0.498176 0.167349 -0.747645 0.435141 0.0517046
0.505767 0.491986 0.445907 1.20012 -0.154792 0.130383
0.339791 0.696398 0.298188 -0.200377 1.44112 0.690123
0.362532 0.671044 0.377705 -0.177636 1.41576 0.76964
0.504044 0.688707 0.408265 0.568057 1.17671 1.27876
0.533444 0.469109 0.486692 1.23258 -0.107614 0.909308
0.14281 0.483094 0.295678 1.0208 0.101221 0.584295
0.682264 0.348447 0.263096 1.52751 -0.135952 0.488735
0.537579 0.321577 0.10975 0.740572 -0.401467 -0.550554
0.672727 0.546307 0.126837 1.21466 0.583667 -0.712755
0.646938 0.404618 0.118677 1.41625 0.049937 0.650055
0.403365 0.700103 0.138975 0.158193 1.27698 -0.640195
0.800815 0.550779 0.283012 1.48741 1.27437 0.212327
0.495455 0.641384 0.420991 0.529921 0.775481 1.41136
0.455072 0.538326 0.474507 0.195218 1.16407 -0.260967
0.103598 0.505024 0.354435 -0.777593 0.580098 0.821197
0.128772 0.529296 0.352617 0.121564 1.52916 0.367555
0.473413 0.719008 0.142041 0.385139 1.33185 -0.643217
0.886096 0.497689 0.395864 1.39245 0.598389 -0.460562
0.470153 0.459438 0.438155 -0.0986712 -0.0790429 1.05983
0.476319 0.46917 0.443056 0.676613 0.241336 1.39593
0.240781 0.440307 0.173028 -0.473755 0.263947 -0.503976
0.848005 0.524444 0.404093 0.545093 1.31828 0.93141
0.461869 0.517118 0.453687 -0.227011 1.09197 0.0121156
0.586052 0.649875 0.107946 0.905135 1.04975 -0.751292
0.153366 0.487284 0.269803 0.733943 -0.0285866 0.899729
0.230575 0.497077 0.265108 -0.763547 0.534002 0.366878
0.335094 0.418042 0.105004 0.16144 0.344803 -0.877075
0.652223 0.582279 0.120528 1.51068 1.01291 0.399112
0.467017 0.756844 0.214564 0.480265 1.75572 0.259981
0.240919 0.401532 0.217285 -0.69057 0.0869041 0.399872
0.17909 0.490404 0.355597 0.313486 0.398343 -0.631045
0.536946 0.295321 0.136468 0.731418 -0.196503 -0.71223
0.602838 0.363283 0.109239 0.91822 -0.0345541 -0.752306
0.333332 0.636244 0.388088 -0.322252 1.34389 0.651609
0.48147 0.474444 0.448942 0.205006 -0.398207 0.0463906
0.402139 0.317441 0.39556 -0.029545 -0.482677 0.812044
0.351601 0.641281 0.115008 -0.368311 1.33177 0.0446686
0.243283 0.458803 0.293 -0.662663 0.334096 0.69761
0.11255 0.523911 0.362244 -0.494835 0.683756 1.1404
0.757803 0.492624 0.293654 0.00919629 0.327032 0.935657
0.456234 0.504385 0.449927 -0.445713 0.920854 0.33571
0.311224 0.468567 0.418763 0.219112 0.417234 1.41319
0.296191 0.536197 0.411659 -0.168048 0.683595 1.28502
0.148227 0.529657 0.253684 -0.0645853 1.48488 0.04812
0.648897 0.434122 0.108123 0.979402 0.257658 -0.819037
0.414614 0.701529 0.136491 0.169442 1.27841 -0.642678
0.336219 0.352081 0.133087 -0.105591 -0.0529944 -0.667362
0.164824 0.493974 0.262911 0.911909 0.689137 0.898345
0.651138 0.59058 0.405544 1.41545 1.06666 0.840488
0.281803 0.512063 0.385069 -0.651735 0.600272 0.732526
0.45788 0.507967 0.501624 0.295345 0.563149 1.48678
0.377166 0.722596 0.295332 0.169983 1.6294 0.662449
0.6762 0.672857 0.233107 1.51557 1.19476 0.385038
0.131097 0.528956 0.346724 0.429487 1.32779 -0.175608
0.24015 0.488913 0.357409 0.245934 0.247493 -0.612995
0.524014 0.349663 0.419245 0.585304 0.0905479 1.38314
0.119554 0.524491 0.271039 -0.63144 0.875481 -0.288259
0.655401 0.341431 0.156533 1.26208 -0.224315 -0.401922
0.600316 0.493227 0.0990557 0.598983 0.492698 -0.900943
0.836943 0.52282 0.400184 0.534031 1.31666 0.927501
0.528375 0.65625 0.104128 0.574932 0.719664 -0.892773
0.798731 0.480738 0.223173 1.40877 0.310033 -0.550595
0.552342 0.268689 0.166128 0.830821 -0.460486 -0.458974
0.512282 0.513971 0.499986 0.546119 0.516126 1.49941
0.226355 0.52214 0.212431 -0.771111 0.493483 0.277542
0.465067 0.372653 0.100308 0.487369 0.3271 -0.898405
0.719967 0.571647 0.258299 1.68379 0.799122 0.39725
0.729868 0.561862 0.197774 1.62672 0.747042 -0.203919
0.210328 0.528637 0.372082 0.218827 1.51048 0.561606
0.366778 0.323161 0.369896 -0.0649068 -0.476957 0.786381
0.331834 0.584908 0.417863 0.22403 0.672879 1.40814
0.577856 0.696981 0.141986 0.797067 1.32094 -0.608095
0.827316 0.483803 0.302088 1.77145 0.183547 0.166268
0.491655 0.307144 0.114809 0.455506 -0.259744 -0.708193
0.33513 0.355439 0.382043 -0.23767 -0.365778 0.77159
0.243519 0.399255 0.226625 -0.68797 0.0846266 0.409212
0.111963 0.471767 0.299976 -0.0305091 -0.517927 0.28558
0.173826 0.498231 0.386379 0.188153 0.427106 1.38374
0.508128 0.466436 0.436662 0.906714 0.243952 1.3264
0.827442 0.470324 0.33909 1.68991 -0.0186028 0.208355
0.813553 0.4621 0.323985 1.148 -0.466681 0.483696
0.728588 0.474615 0.283825 0.448691 -0.0096475 1.11277
0.695718 0.646387 0.216199 1.53509 1.16829 0.368131
0.170803 0.526516 0.361821 0.351208 1.46168 0.0569844
0.305876 0.391612 0.13237 -0.224234 0.0890527 -0.659742
0.707922 0.394912 0.172678 1.62908 0.0601781 -0.0258664
0.342946 0.625907 0.409836 -0.0517407 0.992566 1.25232
0.815562 0.470368 0.26056 1.67803 -0.0185593 0.129824
0.289625 0.503205 0.408407 -0.645354 0.588287 0.752756
0.573174 0.665295 0.122307 0.931647 1.39311 0.706931
0.85316 0.524507 0.399536 0.944493 1.50138 0.206185
0.484126 0.287831 0.137462 0.445097 -0.310373 -0.662931
0.672961 0.486919 0.116286 1.60462 0.337497 -0.214905
0.497722 0.525588 0.500454 0.531558 0.527743 1.49988
0.498391 0.529539 0.43931 0.720438 0.774599 1.38305
0.231606 0.45956 0.194386 -0.743886 0.27285 0.0779665
0.0973594 0.490588 0.327022 -0.789888 0.0321793 0.275507
0.830385 0.47276 0.377037 0.930732 -0.521786 0.348598
0.590478 0.727926 0.189869 0.988697 1.62673 0.00662222
0.143731 0.529445 0.359405 0.135037 1.52924 0.341102
0.28143 0.668146 0.196676 -0.533968 1.24148 0.276764
0.261812 0.386705 0.175652 -0.505287 0.0228144 -0.352688
0.53486 0.745132 0.182664 0.6946 1.67323 -0.15366
0.19454 0.518582 0.229378 0.629038 1.12251 0.897575
0.475284 0.703425 0.130792 0.43453 1.24988 -0.705704
0.248094 0.394545 0.241851 -0.683395 0.0799169 0.424438
0.279231 0.386662 0.153571 -0.436531 0.0813274 -0.474485
0.569327 0.661884 0.10936 0.728287 1.04013 -0.802596
0.358465 0.29386 0.30495 -0.0109456 -0.557034 0.678466
0.248782 0.465422 0.307353 -0.657164 0.340714 0.711963
0.140268 0.526199 0.347748 0.438659 1.32503 -0.174584
0.809781 0.516837 0.38672 0.10106 0.915576 0.968718
0.200423 0.528204 0.216343 0.26454 1.49262 0.472849
0.489071 0.343529 0.419619 0.518205 0.206569 1.40977
0.496033 0.446829 0.481713 0.467111 -0.19474 -0.284806
0.337216 0.680479 0.324887 -0.202952 1.4252 0.716822
0.792476 0.477458 0.345462 0.0835632 -0.140843 0.684794
0.282084 0.490668 0.386295 -0.677894 0.428399 0.659361
0.508993 0.479604 0.439567 0.90758 0.257121 1.3293
0.545277 0.320325 0.113857 0.842101 -0.628105 0.00260951
0.159228 0.515596 0.381086 -0.0469421 0.882514 1.28821
0.360048 0.719872 0.276656 -0.201828 1.5255 0.464416
0.131586 0.478647 0.316512 0.779855 -0.244087 0.556101
0.125879 0.468482 0.355024 0.372699 -0.0928817 -0.434881
0.383332 0.275628 0.287294 0.0343405 -0.631415 0.522829
0.833518 0.524258 0.339875 1.34714 1.37709 0.245679
0.173441 0.512547 0.247076 0.920526 0.70771 0.88251
0.861928 0.52195 0.390761 0.953261 1.49882 0.197411
0.839552 0.50308 0.346347 1.75204 0.569796 -0.0572837
0.783023 0.457593 0.293565 0.616135 -0.350606 0.858332
0.782817 0.459164 0.216314 1.42076 -0.12863 -0.281206
0.526747 0.527969 0.480381 1.31523 1.05079 0.15641
0.230085 0.567051 0.195289 -0.61476 0.921474 -0.205485
0.631094 0.41857 0.419611 0.715211 0.390759 1.41568
0.487147 0.522993 0.445264 0.60958 1.51345 0.382004
0.408309 0.648428 0.101867 0.295173 0.986575 -0.832401
0.754675 0.452242 0.276911 0.578253 -0.391454 0.783915
0.249945 0.418334 0.28288 -0.690593 0.195004 0.538833
0.17979 0.526461 0.21589 -0.276223 1.09691 -0.467223
0.28726 0.571348 0.132552 -0.145397 0.801625 -0.739102
0.57408 0.446575 0.425207 0.658197 0.418764 1.42128
0.161609 0.528996 0.236758 -0.051204 1.48422 0.0311943
0.108738 0.525792 0.358882 -0.498647 0.685637 1.13704
0.551862 0.737502 0.172045 0.66305 1.57192 -0.367752
0.286467 0.463339 0.387941 -0.547329 0.383179 0.934162
0.260823 0.528053 0.337272 -0.601186 0.826328 0.747119
0.866132 0.495127 0.384537 1.5728 0.370289 -0.311904
0.233202 0.546308 0.189944 -0.64518 0.119215 0.404507
0.283822 0.529802 0.386088 -0.641534 0.582795 0.761465
0.664194 0.617421 0.14149 1.15234 0.968495 -0.65755
0.503896 0.481908 0.442426 0.902483 0.259424 1.33216
0.504152 0.488911 0.45113 1.29092 0.288884 1.03507
0.772471 0.501239 0.308721 0.118221 0.501817 1.065
0.662091 0.474773 0.107107 1.31934 0.378672 -0.640417
0.440332 0.524253 0.476424 -0.142695 0.76865 -0.298399
0.46258 0.616178 0.424324 0.441769 0.735711 1.41694
0.56128 0.672644 0.120452 0.919752 1.40046 0.705076
0.670175 0.537715 0.407775 1.20234 0.633384 1.24899
0.740018 0.48268 0.187315 1.08884 0.317274 -0.735161
0.127606 0.489607 0.244473 -0.442549 0.286751 -0.551625
0.38145 0.724297 0.169502 0.085029 1.38671 -0.518498
0.229306 0.461856 0.231554 -0.765294 0.402411 0.316625
0.673218 0.620547 0.148833 1.24165 0.876299 -0.633136
0.245304 0.606828 0.198385 -0.599542 0.961252 -0.202389
0.539224 0.729173 0.158889 0.771321 1.38664 -0.557952
0.464268 0.324537 0.415674 0.506056 -0.101664 1.31934
0.237798 0.419234 0.206257 -0.735225 0.231323 0.0724043
0.309805 0.417536 0.408394 -0.306795 0.121064 1.13771
0.149827 0.469877 0.366509 0.0494805 -0.441758 0.765071
0.306307 0.422052 0.109795 0.132652 0.348813 -0.872284
0.110372 0.498126 0.36584 -0.497014 0.657971 1.144
0.448979 0.385836 0.424993 0.384548 0.290331 1.41833
0.530248 0.317706 0.409234 0.626108 -0.0420934 1.33733
0.46394 0.690759 0.118123 0.420634 1.60594 0.518835
0.135362 0.514956 0.314828 1.05621 0.708686 0.653204
0.243207 0.509475 0.157584 -0.635175 0.0823819 0.372148
0.576141 0.666221 0.406949 0.904039 1.20936 1.17992
0.232095 0.451248 0.202771 -0.740928 0.263337 0.0689187
0.724179 0.582453 0.216031 1.68589 0.806299 0.374132
0.321203 0.623515 0.392094 -0.334381 1.33116 0.655615
0.783184 0.554192 0.275112 0.575855 1.49948 0.527001
0.156189 0.52587 0.25744 0.492951 1.38937 0.632894
0.867143 0.475558 0.40457 0.9409 -0.445317 0.0217514
0.237222 0.436392 0.184485 -0.73827 0.249682 0.0680655
0.511375 0.30813 0.402966 0.490718 -0.590391 0.84141
0.266814 0.456632 0.142698 -0.342378 0.33098 -0.640307
0.174959 0.509118 0.355186 0.385659 0.819647 -0.571733
0.676447 0.500762 0.127211 1.21838 0.538122 -0.712381
0.202411 0.530362 0.207205 0.256828 1.52766 0.256574
0.297945 0.414693 0.130354 -0.188195 0.208108 -0.718758
0.182859 0.479693 0.237595 0.804576 0.144506 0.945492
